# .PCD v0.7 - Point Cloud Data file format
VERSION 0.7
FIELDS x y z
SIZE 4 4 4
TYPE F F F
COUNT 1 1 1
WIDTH 1480
HEIGHT 1
VIEWPOINT 0 0 0 1 0 0 0
POINTS 1480
DATA ascii
0.49499997 0.11499998 -0.11499998
0.49499997 0.11499998 -0.10499999
0.49499997 0.11499998 -0.094999999
0.49499997 0.11499998 -0.085000008
0.49499997 0.11499998 -0.074999988
0.49499997 0.11499998 -0.064999998
0.49499997 0.11499998 -0.055000007
0.49499997 0.11499998 -0.044999987
0.49499997 0.11499998 -0.034999996
0.49499997 0.11499998 -0.025000006
0.49499997 0.11499998 -0.014999986
0.49499997 0.11499998 -0.0049999952
0.49499997 0.11499998 0.0049999952
0.49499997 0.11499998 0.015000015
0.49499997 0.11499998 0.025000006
0.49499997 0.11499998 0.034999996
0.49499997 0.11499998 0.044999987
0.49499997 0.11499998 0.054999977
0.49499997 0.11499998 0.065000027
0.49499997 0.11499998 0.075000018
0.49499997 0.11499998 0.085000008
0.49499997 0.11499998 0.094999999
0.49499997 0.11499998 0.10499999
0.49499997 0.11499998 0.11499998
0.49499997 0.11499998 0.12500003
0.49499997 0.11499998 0.13500002
0.49499997 0.11499998 0.14500001
0.49499997 0.11499998 0.155
0.49499997 0.11499998 0.16499999
0.49499997 0.11499998 0.17499998
0.49499997 0.11499998 0.18499997
0.49499997 0.11499998 0.19500002
0.49499997 0.11499998 0.20500001
0.49499997 0.11499998 0.215
0.49499997 0.11499998 0.22499999
0.49499997 0.11499998 0.23499998
0.49499997 0.11499998 0.24499997
0.49499997 0.11499998 0.25500003
0.49499997 0.11499998 0.26500002
0.49499997 0.11499998 0.27500001
0.49499997 0.11499998 0.285
0.49499997 0.11499998 0.29499999
0.49499997 0.11499998 0.30499998
0.49499997 0.11499998 0.31499997
0.49499997 0.11499998 0.32500002
0.49499997 0.11499998 0.33500001
0.49499997 0.11499998 0.345
0.49499997 0.11499998 0.35499999
0.49499997 0.11499998 0.36499998
0.49499997 0.11499998 0.37499997
0.49499997 0.11499998 0.38500002
0.49499997 0.11499998 0.39500001
0.49499997 0.11499998 0.405
0.49499997 0.11499998 0.41499999
0.49499997 0.11499998 0.42499998
0.49499997 0.11499998 0.43499997
0.49499997 0.11499998 0.44500002
0.49499997 0.11499998 0.45500001
0.49499997 0.11499998 0.465
0.49499997 0.11499998 0.47499999
0.49499997 0.11499998 0.48499998
0.49499997 0.12500003 -0.48499998
0.49499997 0.12500003 -0.47499999
0.49499997 0.12500003 -0.46499997
0.49499997 0.12500003 -0.45499998
0.49499997 0.12500003 -0.44499999
0.49499997 0.12500003 -0.435
0.49499997 0.12500003 -0.42499998
0.49499997 0.12500003 -0.41499999
0.49499997 0.12500003 -0.40499997
0.49499997 0.12500003 -0.39499998
0.49499997 0.12500003 -0.38499999
0.49499997 0.12500003 -0.375
0.49499997 0.12500003 -0.36499998
0.49499997 0.12500003 -0.35499999
0.49499997 0.12500003 -0.34499997
0.49499997 0.12500003 -0.33499998
0.49499997 0.12500003 -0.32499999
0.49499997 0.12500003 -0.315
0.49499997 0.12500003 -0.30500001
0.49499997 0.12500003 -0.29499999
0.49499997 0.12500003 -0.285
0.49499997 0.12500003 -0.27499998
0.49499997 0.12500003 -0.26499999
0.49499997 0.12500003 -0.255
0.49499997 0.12500003 -0.24499999
0.49499997 0.12500003 -0.23499998
0.49499997 0.12500003 -0.22499999
0.49499997 0.12500003 -0.215
0.49499997 0.12500003 -0.20499998
0.49499997 0.12500003 -0.19499999
0.49499997 0.12500003 -0.185
0.49499997 0.12500003 -0.17499998
0.49499997 0.12500003 -0.16499999
0.49499997 0.12500003 -0.155
0.49499997 0.12500003 -0.14499998
0.49499997 0.12500003 -0.13499999
0.49499997 0.12500003 -0.125
0.49499997 0.12500003 -0.11499998
0.49499997 0.12500003 -0.10499999
0.49499997 0.12500003 -0.094999999
0.49499997 0.12500003 -0.085000008
0.49499997 0.12500003 -0.074999988
0.49499997 0.12500003 -0.064999998
0.49499997 0.12500003 -0.055000007
0.49499997 0.12500003 -0.044999987
0.49499997 0.12500003 -0.034999996
0.49499997 0.12500003 -0.025000006
0.49499997 0.12500003 -0.014999986
0.49499997 0.12500003 -0.0049999952
0.49499997 0.12500003 0.0049999952
0.49499997 0.12500003 0.015000015
0.49499997 0.12500003 0.025000006
0.49499997 0.12500003 0.034999996
0.49499997 0.12500003 0.044999987
0.49499997 0.12500003 0.054999977
0.49499997 0.12500003 0.065000027
0.49499997 0.12500003 0.075000018
0.49499997 0.12500003 0.085000008
0.49499997 0.12500003 0.094999999
0.49499997 0.12500003 0.10499999
0.49499997 0.12500003 0.11499998
0.49499997 0.12500003 0.12500003
0.49499997 0.12500003 0.13500002
0.49499997 0.12500003 0.14500001
0.49499997 0.12500003 0.155
0.49499997 0.12500003 0.16499999
0.49499997 0.12500003 0.17499998
0.49499997 0.12500003 0.18499997
0.49499997 0.12500003 0.19500002
0.49499997 0.12500003 0.20500001
0.49499997 0.12500003 0.215
0.49499997 0.12500003 0.22499999
0.49499997 0.12500003 0.23499998
0.49499997 0.12500003 0.24499997
0.49499997 0.12500003 0.25500003
0.49499997 0.12500003 0.26500002
0.49499997 0.12500003 0.27500001
0.49499997 0.12500003 0.285
0.49499997 0.12500003 0.29499999
0.49499997 0.12500003 0.30499998
0.49499997 0.12500003 0.31499997
0.49499997 0.12500003 0.32500002
0.49499997 0.12500003 0.33500001
0.49499997 0.12500003 0.345
0.49499997 0.12500003 0.35499999
0.49499997 0.12500003 0.36499998
0.49499997 0.12500003 0.37499997
0.49499997 0.12500003 0.38500002
0.49499997 0.12500003 0.39500001
0.49499997 0.12500003 0.405
0.49499997 0.12500003 0.41499999
0.49499997 0.12500003 0.42499998
0.49499997 0.12500003 0.43499997
0.49499997 0.12500003 0.44500002
0.49499997 0.12500003 0.45500001
0.49499997 0.12500003 0.465
0.49499997 0.12500003 0.47499999
0.49499997 0.12500003 0.48499998
0.49499997 0.13500002 -0.48499998
0.49499997 0.13500002 -0.47499999
0.49499997 0.13500002 -0.46499997
0.49499997 0.13500002 -0.45499998
0.49499997 0.13500002 -0.44499999
0.49499997 0.13500002 -0.435
0.49499997 0.13500002 -0.42499998
0.49499997 0.13500002 -0.41499999
0.49499997 0.13500002 -0.40499997
0.49499997 0.13500002 -0.39499998
0.49499997 0.13500002 -0.38499999
0.49499997 0.13500002 -0.375
0.49499997 0.13500002 -0.36499998
0.49499997 0.13500002 -0.35499999
0.49499997 0.13500002 -0.34499997
0.49499997 0.13500002 -0.33499998
0.49499997 0.13500002 -0.32499999
0.49499997 0.13500002 -0.315
0.49499997 0.13500002 -0.30500001
0.49499997 0.13500002 -0.29499999
0.49499997 0.13500002 -0.285
0.49499997 0.13500002 -0.27499998
0.49499997 0.13500002 -0.26499999
0.49499997 0.13500002 -0.255
0.49499997 0.13500002 -0.24499999
0.49499997 0.13500002 -0.23499998
0.49499997 0.13500002 -0.22499999
0.49499997 0.13500002 -0.215
0.49499997 0.13500002 -0.20499998
0.49499997 0.13500002 -0.19499999
0.49499997 0.13500002 -0.185
0.49499997 0.13500002 -0.17499998
0.49499997 0.13500002 -0.16499999
0.49499997 0.13500002 -0.155
0.49499997 0.13500002 -0.14499998
0.49499997 0.13500002 -0.13499999
0.49499997 0.13500002 -0.125
0.49499997 0.13500002 -0.11499998
0.49499997 0.13500002 -0.10499999
0.49499997 0.13500002 -0.094999999
0.49499997 0.13500002 -0.085000008
0.49499997 0.13500002 -0.074999988
0.49499997 0.13500002 -0.064999998
0.49499997 0.13500002 -0.055000007
0.49499997 0.13500002 -0.044999987
0.49499997 0.13500002 -0.034999996
0.49499997 0.13500002 -0.025000006
0.49499997 0.13500002 -0.014999986
0.49499997 0.13500002 -0.0049999952
0.49499997 0.13500002 0.0049999952
0.49499997 0.13500002 0.015000015
0.49499997 0.13500002 0.025000006
0.49499997 0.13500002 0.034999996
0.49499997 0.13500002 0.044999987
0.49499997 0.13500002 0.054999977
0.49499997 0.13500002 0.065000027
0.49499997 0.13500002 0.075000018
0.49499997 0.13500002 0.085000008
0.49499997 0.13500002 0.094999999
0.49499997 0.13500002 0.10499999
0.49499997 0.13500002 0.11499998
0.49499997 0.13500002 0.12500003
0.49499997 0.13500002 0.13500002
0.49499997 0.13500002 0.14500001
0.49499997 0.13500002 0.155
0.49499997 0.13500002 0.16499999
0.49499997 0.13500002 0.17499998
0.49499997 0.13500002 0.18499997
0.49499997 0.13500002 0.19500002
0.49499997 0.13500002 0.20500001
0.49499997 0.13500002 0.215
0.49499997 0.13500002 0.22499999
0.49499997 0.13500002 0.23499998
0.49499997 0.13500002 0.24499997
0.49499997 0.13500002 0.25500003
0.49499997 0.13500002 0.26500002
0.49499997 0.13500002 0.27500001
0.49499997 0.13500002 0.285
0.49499997 0.13500002 0.29499999
0.49499997 0.13500002 0.30499998
0.49499997 0.13500002 0.31499997
0.49499997 0.13500002 0.32500002
0.49499997 0.13500002 0.33500001
0.49499997 0.13500002 0.345
0.49499997 0.13500002 0.35499999
0.49499997 0.13500002 0.36499998
0.49499997 0.13500002 0.37499997
0.49499997 0.13500002 0.38500002
0.49499997 0.13500002 0.39500001
0.49499997 0.13500002 0.405
0.49499997 0.13500002 0.41499999
0.49499997 0.13500002 0.42499998
0.49499997 0.13500002 0.43499997
0.49499997 0.13500002 0.44500002
0.49499997 0.13500002 0.45500001
0.49499997 0.13500002 0.465
0.49499997 0.13500002 0.47499999
0.49499997 0.13500002 0.48499998
0.49499997 0.14500001 -0.48499998
0.49499997 0.14500001 -0.47499999
0.49499997 0.14500001 -0.46499997
0.49499997 0.14500001 -0.45499998
0.49499997 0.14500001 -0.44499999
0.49499997 0.14500001 -0.435
0.49499997 0.14500001 -0.42499998
0.49499997 0.14500001 -0.41499999
0.49499997 0.14500001 -0.40499997
0.49499997 0.14500001 -0.39499998
0.49499997 0.14500001 -0.38499999
0.49499997 0.14500001 -0.375
0.49499997 0.14500001 -0.36499998
0.49499997 0.14500001 -0.35499999
0.49499997 0.14500001 -0.34499997
0.49499997 0.14500001 -0.33499998
0.49499997 0.14500001 -0.32499999
0.49499997 0.14500001 -0.315
0.49499997 0.14500001 -0.30500001
0.49499997 0.14500001 -0.29499999
0.49499997 0.14500001 -0.285
0.49499997 0.14500001 -0.27499998
0.49499997 0.14500001 -0.26499999
0.49499997 0.14500001 -0.255
0.49499997 0.14500001 -0.24499999
0.49499997 0.14500001 -0.23499998
0.49499997 0.14500001 -0.22499999
0.49499997 0.14500001 -0.215
0.49499997 0.14500001 -0.20499998
0.49499997 0.14500001 -0.19499999
0.49499997 0.14500001 -0.185
0.49499997 0.14500001 -0.17499998
0.49499997 0.14500001 -0.16499999
0.49499997 0.14500001 -0.155
0.49499997 0.14500001 -0.14499998
0.49499997 0.14500001 -0.13499999
0.49499997 0.14500001 -0.125
0.49499997 0.14500001 -0.11499998
0.49499997 0.14500001 -0.10499999
0.49499997 0.14500001 -0.094999999
0.49499997 0.14500001 -0.085000008
0.49499997 0.14500001 -0.074999988
0.49499997 0.14500001 -0.064999998
0.49499997 0.14500001 -0.055000007
0.49499997 0.14500001 -0.044999987
0.49499997 0.14500001 -0.034999996
0.49499997 0.14500001 -0.025000006
0.49499997 0.14500001 -0.014999986
0.49499997 0.14500001 -0.0049999952
0.49499997 0.14500001 0.0049999952
0.49499997 0.14500001 0.015000015
0.49499997 0.14500001 0.025000006
0.49499997 0.14500001 0.034999996
0.49499997 0.14500001 0.044999987
0.49499997 0.14500001 0.054999977
0.49499997 0.14500001 0.065000027
0.49499997 0.14500001 0.075000018
0.49499997 0.14500001 0.085000008
0.49499997 0.14500001 0.094999999
0.49499997 0.14500001 0.10499999
0.49499997 0.14500001 0.11499998
0.49499997 0.14500001 0.12500003
0.49499997 0.14500001 0.13500002
0.49499997 0.14500001 0.14500001
0.49499997 0.14500001 0.155
0.49499997 0.14500001 0.16499999
0.49499997 0.14500001 0.17499998
0.49499997 0.14500001 0.18499997
0.49499997 0.14500001 0.19500002
0.49499997 0.14500001 0.20500001
0.49499997 0.14500001 0.215
0.49499997 0.14500001 0.22499999
0.49499997 0.14500001 0.23499998
0.49499997 0.14500001 0.24499997
0.49499997 0.14500001 0.25500003
0.49499997 0.14500001 0.26500002
0.49499997 0.14500001 0.27500001
0.49499997 0.14500001 0.285
0.49499997 0.14500001 0.29499999
0.49499997 0.14500001 0.30499998
0.49499997 0.14500001 0.31499997
0.49499997 0.14500001 0.32500002
0.49499997 0.14500001 0.33500001
0.49499997 0.14500001 0.345
0.49499997 0.14500001 0.35499999
0.49499997 0.14500001 0.36499998
0.49499997 0.14500001 0.37499997
0.49499997 0.14500001 0.38500002
0.49499997 0.14500001 0.39500001
0.49499997 0.14500001 0.405
0.49499997 0.14500001 0.41499999
0.49499997 0.14500001 0.42499998
0.49499997 0.14500001 0.43499997
0.49499997 0.14500001 0.44500002
0.49499997 0.14500001 0.45500001
0.49499997 0.14500001 0.465
0.49499997 0.14500001 0.47499999
0.49499997 0.14500001 0.48499998
0.49499997 0.155 -0.48499998
0.49499997 0.155 -0.47499999
0.49499997 0.155 -0.46499997
0.49499997 0.155 -0.45499998
0.49499997 0.155 -0.44499999
0.49499997 0.155 -0.435
0.49499997 0.155 -0.42499998
0.49499997 0.155 -0.41499999
0.49499997 0.155 -0.40499997
0.49499997 0.155 -0.39499998
0.49499997 0.155 -0.38499999
0.49499997 0.155 -0.375
0.49499997 0.155 -0.36499998
0.49499997 0.155 -0.35499999
0.49499997 0.155 -0.34499997
0.49499997 0.155 -0.33499998
0.49499997 0.155 -0.32499999
0.49499997 0.155 -0.315
0.49499997 0.155 -0.30500001
0.49499997 0.155 -0.29499999
0.49499997 0.155 -0.285
0.49499997 0.155 -0.27499998
0.49499997 0.155 -0.26499999
0.49499997 0.155 -0.255
0.49499997 0.155 -0.24499999
0.49499997 0.155 -0.23499998
0.49499997 0.155 -0.22499999
0.49499997 0.155 -0.215
0.49499997 0.155 -0.20499998
0.49499997 0.155 -0.19499999
0.49499997 0.155 -0.185
0.49499997 0.155 -0.17499998
0.49499997 0.155 -0.16499999
0.49499997 0.155 -0.155
0.49499997 0.155 -0.14499998
0.49499997 0.155 -0.13499999
0.49499997 0.155 -0.125
0.49499997 0.155 -0.11499998
0.49499997 0.155 -0.10499999
0.49499997 0.155 -0.094999999
0.49499997 0.155 -0.085000008
0.49499997 0.155 -0.074999988
0.49499997 0.155 -0.064999998
0.49499997 0.155 -0.055000007
0.49499997 0.155 -0.044999987
0.49499997 0.155 -0.034999996
0.49499997 0.155 -0.025000006
0.49499997 0.155 -0.014999986
0.49499997 0.155 -0.0049999952
0.49499997 0.155 0.0049999952
0.49499997 0.155 0.015000015
0.49499997 0.155 0.025000006
0.49499997 0.155 0.034999996
0.49499997 0.155 0.044999987
0.49499997 0.155 0.054999977
0.49499997 0.155 0.065000027
0.49499997 0.155 0.075000018
0.49499997 0.155 0.085000008
0.49499997 0.155 0.094999999
0.49499997 0.155 0.10499999
0.49499997 0.155 0.11499998
0.49499997 0.155 0.12500003
0.49499997 0.155 0.13500002
0.49499997 0.155 0.14500001
0.49499997 0.155 0.155
0.49499997 0.155 0.16499999
0.49499997 0.155 0.17499998
0.49499997 0.155 0.18499997
0.49499997 0.155 0.19500002
0.49499997 0.155 0.20500001
0.49499997 0.155 0.215
0.49499997 0.155 0.22499999
0.49499997 0.155 0.23499998
0.49499997 0.155 0.24499997
0.49499997 0.155 0.25500003
0.49499997 0.155 0.26500002
0.49499997 0.155 0.27500001
0.49499997 0.155 0.285
0.49499997 0.155 0.29499999
0.49499997 0.155 0.30499998
0.49499997 0.155 0.31499997
0.49499997 0.155 0.32500002
0.49499997 0.155 0.33500001
0.49499997 0.155 0.345
0.49499997 0.155 0.35499999
0.49499997 0.155 0.36499998
0.49499997 0.155 0.37499997
0.49499997 0.155 0.38500002
0.49499997 0.155 0.39500001
0.49499997 0.155 0.405
0.49499997 0.155 0.41499999
0.49499997 0.155 0.42499998
0.49499997 0.155 0.43499997
0.49499997 0.155 0.44500002
0.49499997 0.155 0.45500001
0.49499997 0.155 0.465
0.49499997 0.155 0.47499999
0.49499997 0.155 0.48499998
0.49499997 0.16499999 -0.48499998
0.49499997 0.16499999 -0.47499999
0.49499997 0.16499999 -0.46499997
0.49499997 0.16499999 -0.45499998
0.49499997 0.16499999 -0.44499999
0.49499997 0.16499999 -0.435
0.49499997 0.16499999 -0.42499998
0.49499997 0.16499999 -0.41499999
0.49499997 0.16499999 -0.40499997
0.49499997 0.16499999 -0.39499998
0.49499997 0.16499999 -0.38499999
0.49499997 0.16499999 -0.375
0.49499997 0.16499999 -0.36499998
0.49499997 0.16499999 -0.35499999
0.49499997 0.16499999 -0.34499997
0.49499997 0.16499999 -0.33499998
0.49499997 0.16499999 -0.32499999
0.49499997 0.16499999 -0.315
0.49499997 0.16499999 -0.30500001
0.49499997 0.16499999 -0.29499999
0.49499997 0.16499999 -0.285
0.49499997 0.16499999 -0.27499998
0.49499997 0.16499999 -0.26499999
0.49499997 0.16499999 -0.255
0.49499997 0.16499999 -0.24499999
0.49499997 0.16499999 -0.23499998
0.49499997 0.16499999 -0.22499999
0.49499997 0.16499999 -0.215
0.49499997 0.16499999 -0.20499998
0.49499997 0.16499999 -0.19499999
0.49499997 0.16499999 -0.185
0.49499997 0.16499999 -0.17499998
0.49499997 0.16499999 -0.16499999
0.49499997 0.16499999 -0.155
0.49499997 0.16499999 -0.14499998
0.49499997 0.16499999 -0.13499999
0.49499997 0.16499999 -0.125
0.49499997 0.16499999 -0.11499998
0.49499997 0.16499999 -0.10499999
0.49499997 0.16499999 -0.094999999
0.49499997 0.16499999 -0.085000008
0.49499997 0.16499999 -0.074999988
0.49499997 0.16499999 -0.064999998
0.49499997 0.16499999 -0.055000007
0.49499997 0.16499999 -0.044999987
0.49499997 0.16499999 -0.034999996
0.49499997 0.16499999 -0.025000006
0.49499997 0.16499999 -0.014999986
0.49499997 0.16499999 -0.0049999952
0.49499997 0.16499999 0.0049999952
0.49499997 0.16499999 0.015000015
0.49499997 0.16499999 0.025000006
0.49499997 0.16499999 0.034999996
0.49499997 0.16499999 0.044999987
0.49499997 0.16499999 0.054999977
0.49499997 0.16499999 0.065000027
0.49499997 0.16499999 0.075000018
0.49499997 0.16499999 0.085000008
0.49499997 0.16499999 0.094999999
0.49499997 0.16499999 0.10499999
0.49499997 0.16499999 0.11499998
0.49499997 0.16499999 0.12500003
0.49499997 0.16499999 0.13500002
0.49499997 0.16499999 0.14500001
0.49499997 0.16499999 0.155
0.49499997 0.16499999 0.16499999
0.49499997 0.16499999 0.17499998
0.49499997 0.16499999 0.18499997
0.49499997 0.16499999 0.19500002
0.49499997 0.16499999 0.20500001
0.49499997 0.16499999 0.215
0.49499997 0.16499999 0.22499999
0.49499997 0.16499999 0.23499998
0.49499997 0.16499999 0.24499997
0.49499997 0.16499999 0.25500003
0.49499997 0.16499999 0.26500002
0.49499997 0.16499999 0.27500001
0.49499997 0.16499999 0.285
0.49499997 0.16499999 0.29499999
0.49499997 0.16499999 0.30499998
0.49499997 0.16499999 0.31499997
0.49499997 0.16499999 0.32500002
0.49499997 0.16499999 0.33500001
0.49499997 0.16499999 0.345
0.49499997 0.16499999 0.35499999
0.49499997 0.16499999 0.36499998
0.49499997 0.16499999 0.37499997
0.49499997 0.16499999 0.38500002
0.49499997 0.16499999 0.39500001
0.49499997 0.16499999 0.405
0.49499997 0.16499999 0.41499999
0.49499997 0.16499999 0.42499998
0.49499997 0.16499999 0.43499997
0.49499997 0.16499999 0.44500002
0.49499997 0.16499999 0.45500001
0.49499997 0.16499999 0.465
0.49499997 0.16499999 0.47499999
0.49499997 0.16499999 0.48499998
0.49499997 0.17499998 -0.48499998
0.49499997 0.17499998 -0.47499999
0.49499997 0.17499998 -0.46499997
0.49499997 0.17499998 -0.45499998
0.49499997 0.17499998 -0.44499999
0.49499997 0.17499998 -0.435
0.49499997 0.17499998 -0.42499998
0.49499997 0.17499998 -0.41499999
0.49499997 0.17499998 -0.40499997
0.49499997 0.17499998 -0.39499998
0.49499997 0.17499998 -0.38499999
0.49499997 0.17499998 -0.375
0.49499997 0.17499998 -0.36499998
0.49499997 0.17499998 -0.35499999
0.49499997 0.17499998 -0.34499997
0.49499997 0.17499998 -0.33499998
0.49499997 0.17499998 -0.32499999
0.49499997 0.17499998 -0.315
0.49499997 0.17499998 -0.30500001
0.49499997 0.17499998 -0.29499999
0.49499997 0.17499998 -0.285
0.49499997 0.17499998 -0.27499998
0.49499997 0.17499998 -0.26499999
0.49499997 0.17499998 -0.255
0.49499997 0.17499998 -0.24499999
0.49499997 0.17499998 -0.23499998
0.49499997 0.17499998 -0.22499999
0.49499997 0.17499998 -0.215
0.49499997 0.17499998 -0.20499998
0.49499997 0.17499998 -0.19499999
0.49499997 0.17499998 -0.185
0.49499997 0.17499998 -0.17499998
0.49499997 0.17499998 -0.16499999
0.49499997 0.17499998 -0.155
0.49499997 0.17499998 -0.14499998
0.49499997 0.17499998 -0.13499999
0.49499997 0.17499998 -0.125
0.49499997 0.17499998 -0.11499998
0.49499997 0.17499998 -0.10499999
0.49499997 0.17499998 -0.094999999
0.49499997 0.17499998 -0.085000008
0.49499997 0.17499998 -0.074999988
0.49499997 0.17499998 -0.064999998
0.49499997 0.17499998 -0.055000007
0.49499997 0.17499998 -0.044999987
0.49499997 0.17499998 -0.034999996
0.49499997 0.17499998 -0.025000006
0.49499997 0.17499998 -0.014999986
0.49499997 0.17499998 -0.0049999952
0.49499997 0.17499998 0.0049999952
0.49499997 0.17499998 0.015000015
0.49499997 0.17499998 0.025000006
0.49499997 0.17499998 0.034999996
0.49499997 0.17499998 0.044999987
0.49499997 0.17499998 0.054999977
0.49499997 0.17499998 0.065000027
0.49499997 0.17499998 0.075000018
0.49499997 0.17499998 0.085000008
0.49499997 0.17499998 0.094999999
0.49499997 0.17499998 0.10499999
0.49499997 0.17499998 0.11499998
0.49499997 0.17499998 0.12500003
0.49499997 0.17499998 0.13500002
0.49499997 0.17499998 0.14500001
0.49499997 0.17499998 0.155
0.49499997 0.17499998 0.16499999
0.49499997 0.17499998 0.17499998
0.49499997 0.17499998 0.18499997
0.49499997 0.17499998 0.19500002
0.49499997 0.17499998 0.20500001
0.49499997 0.17499998 0.215
0.49499997 0.17499998 0.22499999
0.49499997 0.17499998 0.23499998
0.49499997 0.17499998 0.24499997
0.49499997 0.17499998 0.25500003
0.49499997 0.17499998 0.26500002
0.49499997 0.17499998 0.27500001
0.49499997 0.17499998 0.285
0.49499997 0.17499998 0.29499999
0.49499997 0.17499998 0.30499998
0.49499997 0.17499998 0.31499997
0.49499997 0.17499998 0.32500002
0.49499997 0.17499998 0.33500001
0.49499997 0.17499998 0.345
0.49499997 0.17499998 0.35499999
0.49499997 0.17499998 0.36499998
0.49499997 0.17499998 0.37499997
0.49499997 0.17499998 0.38500002
0.49499997 0.17499998 0.39500001
0.49499997 0.17499998 0.405
0.49499997 0.17499998 0.41499999
0.49499997 0.17499998 0.42499998
0.49499997 0.17499998 0.43499997
0.49499997 0.17499998 0.44500002
0.49499997 0.17499998 0.45500001
0.49499997 0.17499998 0.465
0.49499997 0.17499998 0.47499999
0.49499997 0.17499998 0.48499998
0.49499997 0.18499997 -0.48499998
0.49499997 0.18499997 -0.47499999
0.49499997 0.18499997 -0.46499997
0.49499997 0.18499997 -0.45499998
0.49499997 0.18499997 -0.44499999
0.49499997 0.18499997 -0.435
0.49499997 0.18499997 -0.42499998
0.49499997 0.18499997 -0.41499999
0.49499997 0.18499997 -0.40499997
0.49499997 0.18499997 -0.39499998
0.49499997 0.18499997 -0.38499999
0.49499997 0.18499997 -0.375
0.49499997 0.18499997 -0.36499998
0.49499997 0.18499997 -0.35499999
0.49499997 0.18499997 -0.34499997
0.49499997 0.18499997 -0.33499998
0.49499997 0.18499997 -0.32499999
0.49499997 0.18499997 -0.315
0.49499997 0.18499997 -0.30500001
0.49499997 0.18499997 -0.29499999
0.49499997 0.18499997 -0.285
0.49499997 0.18499997 -0.27499998
0.49499997 0.18499997 -0.26499999
0.49499997 0.18499997 -0.255
0.49499997 0.18499997 -0.24499999
0.49499997 0.18499997 -0.23499998
0.49499997 0.18499997 -0.22499999
0.49499997 0.18499997 -0.215
0.49499997 0.18499997 -0.20499998
0.49499997 0.18499997 -0.19499999
0.49499997 0.18499997 -0.185
0.49499997 0.18499997 -0.17499998
0.49499997 0.18499997 -0.16499999
0.49499997 0.18499997 -0.155
0.49499997 0.18499997 -0.14499998
0.49499997 0.18499997 -0.13499999
0.49499997 0.18499997 -0.125
0.49499997 0.18499997 -0.11499998
0.49499997 0.18499997 -0.10499999
0.49499997 0.18499997 -0.094999999
0.49499997 0.18499997 -0.085000008
0.49499997 0.18499997 -0.074999988
0.49499997 0.18499997 -0.064999998
0.49499997 0.18499997 -0.055000007
0.49499997 0.18499997 -0.044999987
0.49499997 0.18499997 -0.034999996
0.49499997 0.18499997 -0.025000006
0.49499997 0.18499997 -0.014999986
0.49499997 0.18499997 -0.0049999952
0.49499997 0.18499997 0.0049999952
0.49499997 0.18499997 0.015000015
0.49499997 0.18499997 0.025000006
0.49499997 0.18499997 0.034999996
0.49499997 0.18499997 0.044999987
0.49499997 0.18499997 0.054999977
0.49499997 0.18499997 0.065000027
0.49499997 0.18499997 0.075000018
0.49499997 0.18499997 0.085000008
0.49499997 0.18499997 0.094999999
0.49499997 0.18499997 0.10499999
0.49499997 0.18499997 0.11499998
0.49499997 0.18499997 0.12500003
0.49499997 0.18499997 0.13500002
0.49499997 0.18499997 0.14500001
0.49499997 0.18499997 0.155
0.49499997 0.18499997 0.16499999
0.49499997 0.18499997 0.17499998
0.49499997 0.18499997 0.18499997
0.49499997 0.18499997 0.19500002
0.49499997 0.18499997 0.20500001
0.49499997 0.18499997 0.215
0.49499997 0.18499997 0.22499999
0.49499997 0.18499997 0.23499998
0.49499997 0.18499997 0.24499997
0.49499997 0.18499997 0.25500003
0.49499997 0.18499997 0.26500002
0.49499997 0.18499997 0.27500001
0.49499997 0.18499997 0.285
0.49499997 0.18499997 0.29499999
0.49499997 0.18499997 0.30499998
0.49499997 0.18499997 0.31499997
0.49499997 0.18499997 0.32500002
0.49499997 0.18499997 0.33500001
0.49499997 0.18499997 0.345
0.49499997 0.18499997 0.35499999
0.49499997 0.18499997 0.36499998
0.49499997 0.18499997 0.37499997
0.49499997 0.18499997 0.38500002
0.49499997 0.18499997 0.39500001
0.49499997 0.18499997 0.405
0.49499997 0.18499997 0.41499999
0.49499997 0.18499997 0.42499998
0.49499997 0.18499997 0.43499997
0.49499997 0.18499997 0.44500002
0.49499997 0.18499997 0.45500001
0.49499997 0.18499997 0.465
0.49499997 0.18499997 0.47499999
0.49499997 0.18499997 0.48499998
0.49499997 0.19500002 -0.48499998
0.49499997 0.19500002 -0.47499999
0.49499997 0.19500002 -0.46499997
0.49499997 0.19500002 -0.45499998
0.49499997 0.19500002 -0.44499999
0.49499997 0.19500002 -0.435
0.49499997 0.19500002 -0.42499998
0.49499997 0.19500002 -0.41499999
0.49499997 0.19500002 -0.40499997
0.49499997 0.19500002 -0.39499998
0.49499997 0.19500002 -0.38499999
0.49499997 0.19500002 -0.375
0.49499997 0.19500002 -0.36499998
0.49499997 0.19500002 -0.35499999
0.49499997 0.19500002 -0.34499997
0.49499997 0.19500002 -0.33499998
0.49499997 0.19500002 -0.32499999
0.49499997 0.19500002 -0.315
0.49499997 0.19500002 -0.30500001
0.49499997 0.19500002 -0.29499999
0.49499997 0.19500002 -0.285
0.49499997 0.19500002 -0.27499998
0.49499997 0.19500002 -0.26499999
0.49499997 0.19500002 -0.255
0.49499997 0.19500002 -0.24499999
0.49499997 0.19500002 -0.23499998
0.49499997 0.19500002 -0.22499999
0.49499997 0.19500002 -0.215
0.49499997 0.19500002 -0.20499998
0.49499997 0.19500002 -0.19499999
0.49499997 0.19500002 -0.185
0.49499997 0.19500002 -0.17499998
0.49499997 0.19500002 -0.16499999
0.49499997 0.19500002 -0.155
0.49499997 0.19500002 -0.14499998
0.49499997 0.19500002 -0.13499999
0.49499997 0.19500002 -0.125
0.49499997 0.19500002 -0.11499998
0.49499997 0.19500002 -0.10499999
0.49499997 0.19500002 -0.094999999
0.49499997 0.19500002 -0.085000008
0.49499997 0.19500002 -0.074999988
0.49499997 0.19500002 -0.064999998
0.49499997 0.19500002 -0.055000007
0.49499997 0.19500002 -0.044999987
0.49499997 0.19500002 -0.034999996
0.49499997 0.19500002 -0.025000006
0.49499997 0.19500002 -0.014999986
0.49499997 0.19500002 -0.0049999952
0.49499997 0.19500002 0.0049999952
0.49499997 0.19500002 0.015000015
0.49499997 0.19500002 0.025000006
0.49499997 0.19500002 0.034999996
0.49499997 0.19500002 0.044999987
0.49499997 0.19500002 0.054999977
0.49499997 0.19500002 0.065000027
0.49499997 0.19500002 0.075000018
0.49499997 0.19500002 0.085000008
0.49499997 0.19500002 0.094999999
0.49499997 0.19500002 0.10499999
0.49499997 0.19500002 0.11499998
0.49499997 0.19500002 0.12500003
0.49499997 0.19500002 0.13500002
0.49499997 0.19500002 0.14500001
0.49499997 0.19500002 0.155
0.49499997 0.19500002 0.16499999
0.49499997 0.19500002 0.17499998
0.49499997 0.19500002 0.18499997
0.49499997 0.19500002 0.19500002
0.49499997 0.19500002 0.20500001
0.49499997 0.19500002 0.215
0.49499997 0.19500002 0.22499999
0.49499997 0.19500002 0.23499998
0.49499997 0.19500002 0.24499997
0.49499997 0.19500002 0.25500003
0.49499997 0.19500002 0.26500002
0.49499997 0.19500002 0.27500001
0.49499997 0.19500002 0.285
0.49499997 0.19500002 0.29499999
0.49499997 0.19500002 0.30499998
0.49499997 0.19500002 0.31499997
0.49499997 0.19500002 0.32500002
0.49499997 0.19500002 0.33500001
0.49499997 0.19500002 0.345
0.49499997 0.19500002 0.35499999
0.49499997 0.19500002 0.36499998
0.49499997 0.19500002 0.37499997
0.49499997 0.19500002 0.38500002
0.49499997 0.19500002 0.39500001
0.49499997 0.19500002 0.405
0.49499997 0.19500002 0.41499999
0.49499997 0.19500002 0.42499998
0.49499997 0.19500002 0.43499997
0.49499997 0.19500002 0.44500002
0.49499997 0.19500002 0.45500001
0.49499997 0.19500002 0.465
0.49499997 0.19500002 0.47499999
0.49499997 0.19500002 0.48499998
0.49499997 0.20500001 -0.48499998
0.49499997 0.20500001 -0.47499999
0.49499997 0.20500001 -0.46499997
0.49499997 0.20500001 -0.45499998
0.49499997 0.20500001 -0.44499999
0.49499997 0.20500001 -0.435
0.49499997 0.20500001 -0.42499998
0.49499997 0.20500001 -0.41499999
0.49499997 0.20500001 -0.40499997
0.49499997 0.20500001 -0.39499998
0.49499997 0.20500001 -0.38499999
0.49499997 0.20500001 -0.375
0.49499997 0.20500001 -0.36499998
0.49499997 0.20500001 -0.35499999
0.49499997 0.20500001 -0.34499997
0.49499997 0.20500001 -0.33499998
0.49499997 0.20500001 -0.32499999
0.49499997 0.20500001 -0.315
0.49499997 0.20500001 -0.30500001
0.49499997 0.20500001 -0.29499999
0.49499997 0.20500001 -0.285
0.49499997 0.20500001 -0.27499998
0.49499997 0.20500001 -0.26499999
0.49499997 0.20500001 -0.255
0.49499997 0.20500001 -0.24499999
0.49499997 0.20500001 -0.23499998
0.49499997 0.20500001 -0.22499999
0.49499997 0.20500001 -0.215
0.49499997 0.20500001 -0.20499998
0.49499997 0.20500001 -0.19499999
0.49499997 0.20500001 -0.185
0.49499997 0.20500001 -0.17499998
0.49499997 0.20500001 -0.16499999
0.49499997 0.20500001 -0.155
0.49499997 0.20500001 -0.14499998
0.49499997 0.20500001 -0.13499999
0.49499997 0.20500001 -0.125
0.49499997 0.20500001 -0.11499998
0.49499997 0.20500001 -0.10499999
0.49499997 0.20500001 -0.094999999
0.49499997 0.20500001 -0.085000008
0.49499997 0.20500001 -0.074999988
0.49499997 0.20500001 -0.064999998
0.49499997 0.20500001 -0.055000007
0.49499997 0.20500001 -0.044999987
0.49499997 0.20500001 -0.034999996
0.49499997 0.20500001 -0.025000006
0.49499997 0.20500001 -0.014999986
0.49499997 0.20500001 -0.0049999952
0.49499997 0.20500001 0.0049999952
0.49499997 0.20500001 0.015000015
0.49499997 0.20500001 0.025000006
0.49499997 0.20500001 0.034999996
0.49499997 0.20500001 0.044999987
0.49499997 0.20500001 0.054999977
0.49499997 0.20500001 0.065000027
0.49499997 0.20500001 0.075000018
0.49499997 0.20500001 0.085000008
0.49499997 0.20500001 0.094999999
0.49499997 0.20500001 0.10499999
0.49499997 0.20500001 0.11499998
0.49499997 0.20500001 0.12500003
0.49499997 0.20500001 0.13500002
0.49499997 0.20500001 0.14500001
0.49499997 0.20500001 0.155
0.49499997 0.20500001 0.16499999
0.49499997 0.20500001 0.17499998
0.49499997 0.20500001 0.18499997
0.49499997 0.20500001 0.19500002
0.49499997 0.20500001 0.20500001
0.49499997 0.20500001 0.215
0.49499997 0.20500001 0.22499999
0.49499997 0.20500001 0.23499998
0.49499997 0.20500001 0.24499997
0.49499997 0.20500001 0.25500003
0.49499997 0.20500001 0.26500002
0.49499997 0.20500001 0.27500001
0.49499997 0.20500001 0.285
0.49499997 0.20500001 0.29499999
0.49499997 0.20500001 0.30499998
0.49499997 0.20500001 0.31499997
0.49499997 0.20500001 0.32500002
0.49499997 0.20500001 0.33500001
0.49499997 0.20500001 0.345
0.49499997 0.20500001 0.35499999
0.49499997 0.20500001 0.36499998
0.49499997 0.20500001 0.37499997
0.49499997 0.20500001 0.38500002
0.49499997 0.20500001 0.39500001
0.49499997 0.20500001 0.405
0.49499997 0.20500001 0.41499999
0.49499997 0.20500001 0.42499998
0.49499997 0.20500001 0.43499997
0.49499997 0.20500001 0.44500002
0.49499997 0.20500001 0.45500001
0.49499997 0.20500001 0.465
0.49499997 0.20500001 0.47499999
0.49499997 0.20500001 0.48499998
0.49499997 0.215 -0.48499998
0.49499997 0.215 -0.47499999
0.49499997 0.215 -0.46499997
0.49499997 0.215 -0.45499998
0.49499997 0.215 -0.44499999
0.49499997 0.215 -0.435
0.49499997 0.215 -0.42499998
0.49499997 0.215 -0.41499999
0.49499997 0.215 -0.40499997
0.49499997 0.215 -0.39499998
0.49499997 0.215 -0.38499999
0.49499997 0.215 -0.375
0.49499997 0.215 -0.36499998
0.49499997 0.215 -0.35499999
0.49499997 0.215 -0.34499997
0.49499997 0.215 -0.33499998
0.49499997 0.215 -0.32499999
0.49499997 0.215 -0.315
0.49499997 0.215 -0.30500001
0.49499997 0.215 -0.29499999
0.49499997 0.215 -0.285
0.49499997 0.215 -0.27499998
0.49499997 0.215 -0.26499999
0.49499997 0.215 -0.255
0.49499997 0.215 -0.24499999
0.49499997 0.215 -0.23499998
0.49499997 0.215 -0.22499999
0.49499997 0.215 -0.215
0.49499997 0.215 -0.20499998
0.49499997 0.215 -0.19499999
0.49499997 0.215 -0.185
0.49499997 0.215 -0.17499998
0.49499997 0.215 -0.16499999
0.49499997 0.215 -0.155
0.49499997 0.215 -0.14499998
0.49499997 0.215 -0.13499999
0.49499997 0.215 -0.125
0.49499997 0.215 -0.11499998
0.49499997 0.215 -0.10499999
0.49499997 0.215 -0.094999999
0.49499997 0.215 -0.085000008
0.49499997 0.215 -0.074999988
0.49499997 0.215 -0.064999998
0.49499997 0.215 -0.055000007
0.49499997 0.215 -0.044999987
0.49499997 0.215 -0.034999996
0.49499997 0.215 -0.025000006
0.49499997 0.215 -0.014999986
0.49499997 0.215 -0.0049999952
0.49499997 0.215 0.0049999952
0.49499997 0.215 0.015000015
0.49499997 0.215 0.025000006
0.49499997 0.215 0.034999996
0.49499997 0.215 0.044999987
0.49499997 0.215 0.054999977
0.49499997 0.215 0.065000027
0.49499997 0.215 0.075000018
0.49499997 0.215 0.085000008
0.49499997 0.215 0.094999999
0.49499997 0.215 0.10499999
0.49499997 0.215 0.11499998
0.49499997 0.215 0.12500003
0.49499997 0.215 0.13500002
0.49499997 0.215 0.14500001
0.49499997 0.215 0.155
0.49499997 0.215 0.16499999
0.49499997 0.215 0.17499998
0.49499997 0.215 0.18499997
0.49499997 0.215 0.19500002
0.49499997 0.215 0.20500001
0.49499997 0.215 0.215
0.49499997 0.215 0.22499999
0.49499997 0.215 0.23499998
0.49499997 0.215 0.24499997
0.49499997 0.215 0.25500003
0.49499997 0.215 0.26500002
0.49499997 0.215 0.27500001
0.49499997 0.215 0.285
0.49499997 0.215 0.29499999
0.49499997 0.215 0.30499998
0.49499997 0.215 0.31499997
0.49499997 0.215 0.32500002
0.49499997 0.215 0.33500001
0.49499997 0.215 0.345
0.49499997 0.215 0.35499999
0.49499997 0.215 0.36499998
0.49499997 0.215 0.37499997
0.49499997 0.215 0.38500002
0.49499997 0.215 0.39500001
0.49499997 0.215 0.405
0.49499997 0.215 0.41499999
0.49499997 0.215 0.42499998
0.49499997 0.215 0.43499997
0.49499997 0.215 0.44500002
0.49499997 0.215 0.45500001
0.49499997 0.215 0.465
0.49499997 0.215 0.47499999
0.49499997 0.215 0.48499998
0.49499997 0.22499999 -0.48499998
0.49499997 0.22499999 -0.47499999
0.49499997 0.22499999 -0.46499997
0.49499997 0.22499999 -0.45499998
0.49499997 0.22499999 -0.44499999
0.49499997 0.22499999 -0.435
0.49499997 0.22499999 -0.42499998
0.49499997 0.22499999 -0.41499999
0.49499997 0.22499999 -0.40499997
0.49499997 0.22499999 -0.39499998
0.49499997 0.22499999 -0.38499999
0.49499997 0.22499999 -0.375
0.49499997 0.22499999 -0.36499998
0.49499997 0.22499999 -0.35499999
0.49499997 0.22499999 -0.34499997
0.49499997 0.22499999 -0.33499998
0.49499997 0.22499999 -0.32499999
0.49499997 0.22499999 -0.315
0.49499997 0.22499999 -0.30500001
0.49499997 0.22499999 -0.29499999
0.49499997 0.22499999 -0.285
0.49499997 0.22499999 -0.27499998
0.49499997 0.22499999 -0.26499999
0.49499997 0.22499999 -0.255
0.49499997 0.22499999 -0.24499999
0.49499997 0.22499999 -0.23499998
0.49499997 0.22499999 -0.22499999
0.49499997 0.22499999 -0.215
0.49499997 0.22499999 -0.20499998
0.49499997 0.22499999 -0.19499999
0.49499997 0.22499999 -0.185
0.49499997 0.22499999 -0.17499998
0.49499997 0.22499999 -0.16499999
0.49499997 0.22499999 -0.155
0.49499997 0.22499999 -0.14499998
0.49499997 0.22499999 -0.13499999
0.49499997 0.22499999 -0.125
0.49499997 0.22499999 -0.11499998
0.49499997 0.22499999 -0.10499999
0.49499997 0.22499999 -0.094999999
0.49499997 0.22499999 -0.085000008
0.49499997 0.22499999 -0.074999988
0.49499997 0.22499999 -0.064999998
0.49499997 0.22499999 -0.055000007
0.49499997 0.22499999 -0.044999987
0.49499997 0.22499999 -0.034999996
0.49499997 0.22499999 -0.025000006
0.49499997 0.22499999 -0.014999986
0.49499997 0.22499999 -0.0049999952
0.49499997 0.22499999 0.0049999952
0.49499997 0.22499999 0.015000015
0.49499997 0.22499999 0.025000006
0.49499997 0.22499999 0.034999996
0.49499997 0.22499999 0.044999987
0.49499997 0.22499999 0.054999977
0.49499997 0.22499999 0.065000027
0.49499997 0.22499999 0.075000018
0.49499997 0.22499999 0.085000008
0.49499997 0.22499999 0.094999999
0.49499997 0.22499999 0.10499999
0.49499997 0.22499999 0.11499998
0.49499997 0.22499999 0.12500003
0.49499997 0.22499999 0.13500002
0.49499997 0.22499999 0.14500001
0.49499997 0.22499999 0.155
0.49499997 0.22499999 0.16499999
0.49499997 0.22499999 0.17499998
0.49499997 0.22499999 0.18499997
0.49499997 0.22499999 0.19500002
0.49499997 0.22499999 0.20500001
0.49499997 0.22499999 0.215
0.49499997 0.22499999 0.22499999
0.49499997 0.22499999 0.23499998
0.49499997 0.22499999 0.24499997
0.49499997 0.22499999 0.25500003
0.49499997 0.22499999 0.26500002
0.49499997 0.22499999 0.27500001
0.49499997 0.22499999 0.285
0.49499997 0.22499999 0.29499999
0.49499997 0.22499999 0.30499998
0.49499997 0.22499999 0.31499997
0.49499997 0.22499999 0.32500002
0.49499997 0.22499999 0.33500001
0.49499997 0.22499999 0.345
0.49499997 0.22499999 0.35499999
0.49499997 0.22499999 0.36499998
0.49499997 0.22499999 0.37499997
0.49499997 0.22499999 0.38500002
0.49499997 0.22499999 0.39500001
0.49499997 0.22499999 0.405
0.49499997 0.22499999 0.41499999
0.49499997 0.22499999 0.42499998
0.49499997 0.22499999 0.43499997
0.49499997 0.22499999 0.44500002
0.49499997 0.22499999 0.45500001
0.49499997 0.22499999 0.465
0.49499997 0.22499999 0.47499999
0.49499997 0.22499999 0.48499998
0.49499997 0.23499998 -0.48499998
0.49499997 0.23499998 -0.47499999
0.49499997 0.23499998 -0.46499997
0.49499997 0.23499998 -0.45499998
0.49499997 0.23499998 -0.44499999
0.49499997 0.23499998 -0.435
0.49499997 0.23499998 -0.42499998
0.49499997 0.23499998 -0.41499999
0.49499997 0.23499998 -0.40499997
0.49499997 0.23499998 -0.39499998
0.49499997 0.23499998 -0.38499999
0.49499997 0.23499998 -0.375
0.49499997 0.23499998 -0.36499998
0.49499997 0.23499998 -0.35499999
0.49499997 0.23499998 -0.34499997
0.49499997 0.23499998 -0.33499998
0.49499997 0.23499998 -0.32499999
0.49499997 0.23499998 -0.315
0.49499997 0.23499998 -0.30500001
0.49499997 0.23499998 -0.29499999
0.49499997 0.23499998 -0.285
0.49499997 0.23499998 -0.27499998
0.49499997 0.23499998 -0.26499999
0.49499997 0.23499998 -0.255
0.49499997 0.23499998 -0.24499999
0.49499997 0.23499998 -0.23499998
0.49499997 0.23499998 -0.22499999
0.49499997 0.23499998 -0.215
0.49499997 0.23499998 -0.20499998
0.49499997 0.23499998 -0.19499999
0.49499997 0.23499998 -0.185
0.49499997 0.23499998 -0.17499998
0.49499997 0.23499998 -0.16499999
0.49499997 0.23499998 -0.155
0.49499997 0.23499998 -0.14499998
0.49499997 0.23499998 -0.13499999
0.49499997 0.23499998 -0.125
0.49499997 0.23499998 -0.11499998
0.49499997 0.23499998 -0.10499999
0.49499997 0.23499998 -0.094999999
0.49499997 0.23499998 -0.085000008
0.49499997 0.23499998 -0.074999988
0.49499997 0.23499998 -0.064999998
0.49499997 0.23499998 -0.055000007
0.49499997 0.23499998 -0.044999987
0.49499997 0.23499998 -0.034999996
0.49499997 0.23499998 -0.025000006
0.49499997 0.23499998 -0.014999986
0.49499997 0.23499998 -0.0049999952
0.49499997 0.23499998 0.0049999952
0.49499997 0.23499998 0.015000015
0.49499997 0.23499998 0.025000006
0.49499997 0.23499998 0.034999996
0.49499997 0.23499998 0.044999987
0.49499997 0.23499998 0.054999977
0.49499997 0.23499998 0.065000027
0.49499997 0.23499998 0.075000018
0.49499997 0.23499998 0.085000008
0.49499997 0.23499998 0.094999999
0.49499997 0.23499998 0.10499999
0.49499997 0.23499998 0.11499998
0.49499997 0.23499998 0.12500003
0.49499997 0.23499998 0.13500002
0.49499997 0.23499998 0.14500001
0.49499997 0.23499998 0.155
0.49499997 0.23499998 0.16499999
0.49499997 0.23499998 0.17499998
0.49499997 0.23499998 0.18499997
0.49499997 0.23499998 0.19500002
0.49499997 0.23499998 0.20500001
0.49499997 0.23499998 0.215
0.49499997 0.23499998 0.22499999
0.49499997 0.23499998 0.23499998
0.49499997 0.23499998 0.24499997
0.49499997 0.23499998 0.25500003
0.49499997 0.23499998 0.26500002
0.49499997 0.23499998 0.27500001
0.49499997 0.23499998 0.285
0.49499997 0.23499998 0.29499999
0.49499997 0.23499998 0.30499998
0.49499997 0.23499998 0.31499997
0.49499997 0.23499998 0.32500002
0.49499997 0.23499998 0.33500001
0.49499997 0.23499998 0.345
0.49499997 0.23499998 0.35499999
0.49499997 0.23499998 0.36499998
0.49499997 0.23499998 0.37499997
0.49499997 0.23499998 0.38500002
0.49499997 0.23499998 0.39500001
0.49499997 0.23499998 0.405
0.49499997 0.23499998 0.41499999
0.49499997 0.23499998 0.42499998
0.49499997 0.23499998 0.43499997
0.49499997 0.23499998 0.44500002
0.49499997 0.23499998 0.45500001
0.49499997 0.23499998 0.465
0.49499997 0.23499998 0.47499999
0.49499997 0.23499998 0.48499998
0.49499997 0.24499997 -0.48499998
0.49499997 0.24499997 -0.47499999
0.49499997 0.24499997 -0.46499997
0.49499997 0.24499997 -0.45499998
0.49499997 0.24499997 -0.44499999
0.49499997 0.24499997 -0.435
0.49499997 0.24499997 -0.42499998
0.49499997 0.24499997 -0.41499999
0.49499997 0.24499997 -0.40499997
0.49499997 0.24499997 -0.39499998
0.49499997 0.24499997 -0.38499999
0.49499997 0.24499997 -0.375
0.49499997 0.24499997 -0.36499998
0.49499997 0.24499997 -0.35499999
0.49499997 0.24499997 -0.34499997
0.49499997 0.24499997 -0.33499998
0.49499997 0.24499997 -0.32499999
0.49499997 0.24499997 -0.315
0.49499997 0.24499997 -0.30500001
0.49499997 0.24499997 -0.29499999
0.49499997 0.24499997 -0.285
0.49499997 0.24499997 -0.27499998
0.49499997 0.24499997 -0.26499999
0.49499997 0.24499997 -0.255
0.49499997 0.24499997 -0.24499999
0.49499997 0.24499997 -0.23499998
0.49499997 0.24499997 -0.22499999
0.49499997 0.24499997 -0.215
0.49499997 0.24499997 -0.20499998
0.49499997 0.24499997 -0.19499999
0.49499997 0.24499997 -0.185
0.49499997 0.24499997 -0.17499998
0.49499997 0.24499997 -0.16499999
0.49499997 0.24499997 -0.155
0.49499997 0.24499997 -0.14499998
0.49499997 0.24499997 -0.13499999
0.49499997 0.24499997 -0.125
0.49499997 0.24499997 -0.11499998
0.49499997 0.24499997 -0.10499999
0.49499997 0.24499997 -0.094999999
0.49499997 0.24499997 -0.085000008
0.49499997 0.24499997 -0.074999988
0.49499997 0.24499997 -0.064999998
0.49499997 0.24499997 -0.055000007
0.49499997 0.24499997 -0.044999987
0.49499997 0.24499997 -0.034999996
0.49499997 0.24499997 -0.025000006
0.49499997 0.24499997 -0.014999986
0.49499997 0.24499997 -0.0049999952
0.49499997 0.24499997 0.0049999952
0.49499997 0.24499997 0.015000015
0.49499997 0.24499997 0.025000006
0.49499997 0.24499997 0.034999996
0.49499997 0.24499997 0.044999987
0.49499997 0.24499997 0.054999977
0.49499997 0.24499997 0.065000027
0.49499997 0.24499997 0.075000018
0.49499997 0.24499997 0.085000008
0.49499997 0.24499997 0.094999999
0.49499997 0.24499997 0.10499999
0.49499997 0.24499997 0.11499998
0.49499997 0.24499997 0.12500003
0.49499997 0.24499997 0.13500002
0.49499997 0.24499997 0.14500001
0.49499997 0.24499997 0.155
0.49499997 0.24499997 0.16499999
0.49499997 0.24499997 0.17499998
0.49499997 0.24499997 0.18499997
0.49499997 0.24499997 0.19500002
0.49499997 0.24499997 0.20500001
0.49499997 0.24499997 0.215
0.49499997 0.24499997 0.22499999
0.49499997 0.24499997 0.23499998
0.49499997 0.24499997 0.24499997
0.49499997 0.24499997 0.25500003
0.49499997 0.24499997 0.26500002
0.49499997 0.24499997 0.27500001
0.49499997 0.24499997 0.285
0.49499997 0.24499997 0.29499999
0.49499997 0.24499997 0.30499998
0.49499997 0.24499997 0.31499997
0.49499997 0.24499997 0.32500002
0.49499997 0.24499997 0.33500001
0.49499997 0.24499997 0.345
0.49499997 0.24499997 0.35499999
0.49499997 0.24499997 0.36499998
0.49499997 0.24499997 0.37499997
0.49499997 0.24499997 0.38500002
0.49499997 0.24499997 0.39500001
0.49499997 0.24499997 0.405
0.49499997 0.24499997 0.41499999
0.49499997 0.24499997 0.42499998
0.49499997 0.24499997 0.43499997
0.49499997 0.24499997 0.44500002
0.49499997 0.24499997 0.45500001
0.49499997 0.24499997 0.465
0.49499997 0.24499997 0.47499999
0.49499997 0.24499997 0.48499998
0.49499997 0.25500003 -0.48499998
0.49499997 0.25500003 -0.47499999
0.49499997 0.25500003 -0.46499997
0.49499997 0.25500003 -0.45499998
0.49499997 0.25500003 -0.44499999
0.49499997 0.25500003 -0.435
0.49499997 0.25500003 -0.42499998
0.49499997 0.25500003 -0.41499999
0.49499997 0.25500003 -0.40499997
0.49499997 0.25500003 -0.39499998
0.49499997 0.25500003 -0.38499999
0.49499997 0.25500003 -0.375
0.49499997 0.25500003 -0.36499998
0.49499997 0.25500003 -0.35499999
0.49499997 0.25500003 -0.34499997
0.49499997 0.25500003 -0.33499998
0.49499997 0.25500003 -0.32499999
0.49499997 0.25500003 -0.315
0.49499997 0.25500003 -0.30500001
0.49499997 0.25500003 -0.29499999
0.49499997 0.25500003 -0.285
0.49499997 0.25500003 -0.27499998
0.49499997 0.25500003 -0.26499999
0.49499997 0.25500003 -0.255
0.49499997 0.25500003 -0.24499999
0.49499997 0.25500003 -0.23499998
0.49499997 0.25500003 -0.22499999
0.49499997 0.25500003 -0.215
0.49499997 0.25500003 -0.20499998
0.49499997 0.25500003 -0.19499999
0.49499997 0.25500003 -0.185
0.49499997 0.25500003 -0.17499998
0.49499997 0.25500003 -0.16499999
0.49499997 0.25500003 -0.155
0.49499997 0.25500003 -0.14499998
0.49499997 0.25500003 -0.13499999
0.49499997 0.25500003 -0.125
0.49499997 0.25500003 -0.11499998
0.49499997 0.25500003 -0.10499999
0.49499997 0.25500003 -0.094999999
0.49499997 0.25500003 -0.085000008
0.49499997 0.25500003 -0.074999988
0.49499997 0.25500003 -0.064999998
0.49499997 0.25500003 -0.055000007
0.49499997 0.25500003 -0.044999987
0.49499997 0.25500003 -0.034999996
0.49499997 0.25500003 -0.025000006
0.49499997 0.25500003 -0.014999986
0.49499997 0.25500003 -0.0049999952
0.49499997 0.25500003 0.0049999952
0.49499997 0.25500003 0.015000015
0.49499997 0.25500003 0.025000006
0.49499997 0.25500003 0.034999996
0.49499997 0.25500003 0.044999987
0.49499997 0.25500003 0.054999977
0.49499997 0.25500003 0.065000027
0.49499997 0.25500003 0.075000018
0.49499997 0.25500003 0.085000008
0.49499997 0.25500003 0.094999999
0.49499997 0.25500003 0.10499999
0.49499997 0.25500003 0.11499998
0.49499997 0.25500003 0.12500003
0.49499997 0.25500003 0.13500002
0.49499997 0.25500003 0.14500001
0.49499997 0.25500003 0.155
0.49499997 0.25500003 0.16499999
0.49499997 0.25500003 0.17499998
0.49499997 0.25500003 0.18499997
0.49499997 0.25500003 0.19500002
0.49499997 0.25500003 0.20500001
0.49499997 0.25500003 0.215
0.49499997 0.25500003 0.22499999
0.49499997 0.25500003 0.23499998
0.49499997 0.25500003 0.24499997
0.49499997 0.25500003 0.25500003
0.49499997 0.25500003 0.26500002
0.49499997 0.25500003 0.27500001
0.49499997 0.25500003 0.285
0.49499997 0.25500003 0.29499999
0.49499997 0.25500003 0.30499998
0.49499997 0.25500003 0.31499997
0.49499997 0.25500003 0.32500002
0.49499997 0.25500003 0.33500001
0.49499997 0.25500003 0.345
0.49499997 0.25500003 0.35499999
0.49499997 0.25500003 0.36499998
0.49499997 0.25500003 0.37499997
0.49499997 0.25500003 0.38500002
0.49499997 0.25500003 0.39500001
0.49499997 0.25500003 0.405
0.49499997 0.25500003 0.41499999
0.49499997 0.25500003 0.42499998
0.49499997 0.25500003 0.43499997
0.49499997 0.25500003 0.44500002
0.49499997 0.25500003 0.45500001
0.49499997 0.25500003 0.465
0.49499997 0.25500003 0.47499999
0.49499997 0.25500003 0.48499998
0.49499997 0.26500002 -0.48499998
0.49499997 0.26500002 -0.47499999
0.49499997 0.26500002 -0.46499997
0.49499997 0.26500002 -0.45499998
0.49499997 0.26500002 -0.44499999
0.49499997 0.26500002 -0.435
0.49499997 0.26500002 -0.42499998
0.49499997 0.26500002 -0.41499999
0.49499997 0.26500002 -0.40499997
0.49499997 0.26500002 -0.39499998
0.49499997 0.26500002 -0.38499999
0.49499997 0.26500002 -0.375
0.49499997 0.26500002 -0.36499998
0.49499997 0.26500002 -0.35499999
0.49499997 0.26500002 -0.34499997
0.49499997 0.26500002 -0.33499998
0.49499997 0.26500002 -0.32499999
0.49499997 0.26500002 -0.315
0.49499997 0.26500002 -0.30500001
0.49499997 0.26500002 -0.29499999
0.49499997 0.26500002 -0.285
0.49499997 0.26500002 -0.27499998
0.49499997 0.26500002 -0.26499999
0.49499997 0.26500002 -0.255
0.49499997 0.26500002 -0.24499999
0.49499997 0.26500002 -0.23499998
0.49499997 0.26500002 -0.22499999
0.49499997 0.26500002 -0.215
0.49499997 0.26500002 -0.20499998
0.49499997 0.26500002 -0.19499999
0.49499997 0.26500002 -0.185
0.49499997 0.26500002 -0.17499998
0.49499997 0.26500002 -0.16499999
0.49499997 0.26500002 -0.155
0.49499997 0.26500002 -0.14499998
0.49499997 0.26500002 -0.13499999
0.49499997 0.26500002 -0.125
0.49499997 0.26500002 -0.11499998
0.49499997 0.26500002 -0.10499999
0.49499997 0.26500002 -0.094999999
0.49499997 0.26500002 -0.085000008
0.49499997 0.26500002 -0.074999988
0.49499997 0.26500002 -0.064999998
0.49499997 0.26500002 -0.055000007
0.49499997 0.26500002 -0.044999987
0.49499997 0.26500002 -0.034999996
0.49499997 0.26500002 -0.025000006
