# .PCD v0.7 - Point Cloud Data file format
VERSION 0.7
FIELDS x y z
SIZE 4 4 4
TYPE F F F
COUNT 1 1 1
WIDTH 2220
HEIGHT 1
VIEWPOINT 0 0 0 1 0 0 0
POINTS 2220
DATA ascii
0.31999999 0 0.72999996
0.31999999 0 0.73999995
0.31999999 0 0.75
0.31999999 0 0.75999999
0.31999999 0 0.76999998
0.31999999 0 0.77999997
0.31999999 0 0.78999996
0.31999999 0 0.79999995
0.31999999 0 0.80999994
0.31999999 0 0.81999999
0.31999999 0 0.82999998
0.31999999 0 0.83999997
0.31999999 0 0.84999996
0.31999999 0 0.85999995
0.31999999 0 0.86999995
0.31999999 0 0.88
0.31999999 0 0.88999999
0.31999999 0 0.89999998
0.31999999 0 0.90999997
0.31999999 0 0.91999996
0.31999999 0 0.92999995
0.31999999 0 0.94
0.31999999 0 0.94999999
0.31999999 0 0.95999998
0.31999999 0 0.96999997
0.31999999 0 0.97999996
0.32999998 0 0.0099999905
0.32999998 0 0.019999981
0.32999998 0 0.030000001
0.32999998 0 0.039999992
0.32999998 0 0.049999982
0.32999998 0 0.059999973
0.32999998 0 0.069999993
0.32999998 0 0.079999983
0.32999998 0 0.090000004
0.32999998 0 0.099999994
0.32999998 0 0.10999998
0.32999998 0 0.11999997
0.32999998 0 0.13
0.32999998 0 0.13999999
0.32999998 0 0.15000001
0.32999998 0 0.16
0.32999998 0 0.16999999
0.32999998 0 0.17999998
0.32999998 0 0.18999997
0.32999998 0 0.19999999
0.32999998 0 0.20999998
0.32999998 0 0.22
0.32999998 0 0.22999999
0.32999998 0 0.23999998
0.32999998 0 0.24999999
0.32999998 0 0.25999999
0.32999998 0 0.26999998
0.32999998 0 0.27999997
0.32999998 0 0.28999999
0.32999998 0 0.29999998
0.32999998 0 0.30999997
0.32999998 0 0.31999999
0.32999998 0 0.32999998
0.32999998 0 0.33999997
0.32999998 0 0.34999999
0.32999998 0 0.35999998
0.32999998 0 0.36999997
0.32999998 0 0.38
0.32999998 0 0.38999999
0.32999998 0 0.39999998
0.32999998 0 0.40999997
0.32999998 0 0.41999999
0.32999998 0 0.42999998
0.32999998 0 0.43999997
0.32999998 0 0.44999999
0.32999998 0 0.45999998
0.32999998 0 0.46999997
0.32999998 0 0.47999999
0.32999998 0 0.48999998
0.32999998 0 0.49999997
0.32999998 0 0.50999999
0.32999998 0 0.51999998
0.32999998 0 0.52999997
0.32999998 0 0.53999996
0.32999998 0 0.54999995
0.32999998 0 0.56
0.32999998 0 0.56999999
0.32999998 0 0.57999998
0.32999998 0 0.58999997
0.32999998 0 0.59999996
0.32999998 0 0.60999995
0.32999998 0 0.62
0.32999998 0 0.63
0.32999998 0 0.63999999
0.32999998 0 0.64999998
0.32999998 0 0.65999997
0.32999998 0 0.66999996
0.32999998 0 0.67999995
0.32999998 0 0.69
0.32999998 0 0.69999999
0.32999998 0 0.70999998
0.32999998 0 0.71999997
0.32999998 0 0.72999996
0.32999998 0 0.73999995
0.32999998 0 0.75
0.32999998 0 0.75999999
0.32999998 0 0.76999998
0.32999998 0 0.77999997
0.32999998 0 0.78999996
0.32999998 0 0.79999995
0.32999998 0 0.80999994
0.32999998 0 0.81999999
0.32999998 0 0.82999998
0.32999998 0 0.83999997
0.32999998 0 0.84999996
0.32999998 0 0.85999995
0.32999998 0 0.86999995
0.32999998 0 0.88
0.32999998 0 0.88999999
0.32999998 0 0.89999998
0.32999998 0 0.90999997
0.32999998 0 0.91999996
0.32999998 0 0.92999995
0.32999998 0 0.94
0.32999998 0 0.94999999
0.32999998 0 0.95999998
0.32999998 0 0.96999997
0.32999998 0 0.97999996
0.34 0 0.0099999905
0.34 0 0.019999981
0.34 0 0.030000001
0.34 0 0.039999992
0.34 0 0.049999982
0.34 0 0.059999973
0.34 0 0.069999993
0.34 0 0.079999983
0.34 0 0.090000004
0.34 0 0.099999994
0.34 0 0.10999998
0.34 0 0.11999997
0.34 0 0.13
0.34 0 0.13999999
0.34 0 0.15000001
0.34 0 0.16
0.34 0 0.16999999
0.34 0 0.17999998
0.34 0 0.18999997
0.34 0 0.19999999
0.34 0 0.20999998
0.34 0 0.22
0.34 0 0.22999999
0.34 0 0.23999998
0.34 0 0.24999999
0.34 0 0.25999999
0.34 0 0.26999998
0.34 0 0.27999997
0.34 0 0.28999999
0.34 0 0.29999998
0.34 0 0.30999997
0.34 0 0.31999999
0.34 0 0.32999998
0.34 0 0.33999997
0.34 0 0.34999999
0.34 0 0.35999998
0.34 0 0.36999997
0.34 0 0.38
0.34 0 0.38999999
0.34 0 0.39999998
0.34 0 0.40999997
0.34 0 0.41999999
0.34 0 0.42999998
0.34 0 0.43999997
0.34 0 0.44999999
0.34 0 0.45999998
0.34 0 0.46999997
0.34 0 0.47999999
0.34 0 0.48999998
0.34 0 0.49999997
0.34 0 0.50999999
0.34 0 0.51999998
0.34 0 0.52999997
0.34 0 0.53999996
0.34 0 0.54999995
0.34 0 0.56
0.34 0 0.56999999
0.34 0 0.57999998
0.34 0 0.58999997
0.34 0 0.59999996
0.34 0 0.60999995
0.34 0 0.62
0.34 0 0.63
0.34 0 0.63999999
0.34 0 0.64999998
0.34 0 0.65999997
0.34 0 0.66999996
0.34 0 0.67999995
0.34 0 0.69
0.34 0 0.69999999
0.34 0 0.70999998
0.34 0 0.71999997
0.34 0 0.72999996
0.34 0 0.73999995
0.34 0 0.75
0.34 0 0.75999999
0.34 0 0.76999998
0.34 0 0.77999997
0.34 0 0.78999996
0.34 0 0.79999995
0.34 0 0.80999994
0.34 0 0.81999999
0.34 0 0.82999998
0.34 0 0.83999997
0.34 0 0.84999996
0.34 0 0.85999995
0.34 0 0.86999995
0.34 0 0.88
0.34 0 0.88999999
0.34 0 0.89999998
0.34 0 0.90999997
0.34 0 0.91999996
0.34 0 0.92999995
0.34 0 0.94
0.34 0 0.94999999
0.34 0 0.95999998
0.34 0 0.96999997
0.34 0 0.97999996
0.34999999 0 0.0099999905
0.34999999 0 0.019999981
0.34999999 0 0.030000001
0.34999999 0 0.039999992
0.34999999 0 0.049999982
0.34999999 0 0.059999973
0.34999999 0 0.069999993
0.34999999 0 0.079999983
0.34999999 0 0.090000004
0.34999999 0 0.099999994
0.34999999 0 0.10999998
0.34999999 0 0.11999997
0.34999999 0 0.13
0.34999999 0 0.13999999
0.34999999 0 0.15000001
0.34999999 0 0.16
0.34999999 0 0.16999999
0.34999999 0 0.17999998
0.34999999 0 0.18999997
0.34999999 0 0.19999999
0.34999999 0 0.20999998
0.34999999 0 0.22
0.34999999 0 0.22999999
0.34999999 0 0.23999998
0.34999999 0 0.24999999
0.34999999 0 0.25999999
0.34999999 0 0.26999998
0.34999999 0 0.27999997
0.34999999 0 0.28999999
0.34999999 0 0.29999998
0.34999999 0 0.30999997
0.34999999 0 0.31999999
0.34999999 0 0.32999998
0.34999999 0 0.33999997
0.34999999 0 0.34999999
0.34999999 0 0.35999998
0.34999999 0 0.36999997
0.34999999 0 0.38
0.34999999 0 0.38999999
0.34999999 0 0.39999998
0.34999999 0 0.40999997
0.34999999 0 0.41999999
0.34999999 0 0.42999998
0.34999999 0 0.43999997
0.34999999 0 0.44999999
0.34999999 0 0.45999998
0.34999999 0 0.46999997
0.34999999 0 0.47999999
0.34999999 0 0.48999998
0.34999999 0 0.49999997
0.34999999 0 0.50999999
0.34999999 0 0.51999998
0.34999999 0 0.52999997
0.34999999 0 0.53999996
0.34999999 0 0.54999995
0.34999999 0 0.56
0.34999999 0 0.56999999
0.34999999 0 0.57999998
0.34999999 0 0.58999997
0.34999999 0 0.59999996
0.34999999 0 0.60999995
0.34999999 0 0.62
0.34999999 0 0.63
0.34999999 0 0.63999999
0.34999999 0 0.64999998
0.34999999 0 0.65999997
0.34999999 0 0.66999996
0.34999999 0 0.67999995
0.34999999 0 0.69
0.34999999 0 0.69999999
0.34999999 0 0.70999998
0.34999999 0 0.71999997
0.34999999 0 0.72999996
0.34999999 0 0.73999995
0.34999999 0 0.75
0.34999999 0 0.75999999
0.34999999 0 0.76999998
0.34999999 0 0.77999997
0.34999999 0 0.78999996
0.34999999 0 0.79999995
0.34999999 0 0.80999994
0.34999999 0 0.81999999
0.34999999 0 0.82999998
0.34999999 0 0.83999997
0.34999999 0 0.84999996
0.34999999 0 0.85999995
0.34999999 0 0.86999995
0.34999999 0 0.88
0.34999999 0 0.88999999
0.34999999 0 0.89999998
0.34999999 0 0.90999997
0.34999999 0 0.91999996
0.34999999 0 0.92999995
0.34999999 0 0.94
0.34999999 0 0.94999999
0.34999999 0 0.95999998
0.34999999 0 0.96999997
0.34999999 0 0.97999996
0.35999998 0 0.0099999905
0.35999998 0 0.019999981
0.35999998 0 0.030000001
0.35999998 0 0.039999992
0.35999998 0 0.049999982
0.35999998 0 0.059999973
0.35999998 0 0.069999993
0.35999998 0 0.079999983
0.35999998 0 0.090000004
0.35999998 0 0.099999994
0.35999998 0 0.10999998
0.35999998 0 0.11999997
0.35999998 0 0.13
0.35999998 0 0.13999999
0.35999998 0 0.15000001
0.35999998 0 0.16
0.35999998 0 0.16999999
0.35999998 0 0.17999998
0.35999998 0 0.18999997
0.35999998 0 0.19999999
0.35999998 0 0.20999998
0.35999998 0 0.22
0.35999998 0 0.22999999
0.35999998 0 0.23999998
0.35999998 0 0.24999999
0.35999998 0 0.25999999
0.35999998 0 0.26999998
0.35999998 0 0.27999997
0.35999998 0 0.28999999
0.35999998 0 0.29999998
0.35999998 0 0.30999997
0.35999998 0 0.31999999
0.35999998 0 0.32999998
0.35999998 0 0.33999997
0.35999998 0 0.34999999
0.35999998 0 0.35999998
0.35999998 0 0.36999997
0.35999998 0 0.38
0.35999998 0 0.38999999
0.35999998 0 0.39999998
0.35999998 0 0.40999997
0.35999998 0 0.41999999
0.35999998 0 0.42999998
0.35999998 0 0.43999997
0.35999998 0 0.44999999
0.35999998 0 0.45999998
0.35999998 0 0.46999997
0.35999998 0 0.47999999
0.35999998 0 0.48999998
0.35999998 0 0.49999997
0.35999998 0 0.50999999
0.35999998 0 0.51999998
0.35999998 0 0.52999997
0.35999998 0 0.53999996
0.35999998 0 0.54999995
0.35999998 0 0.56
0.35999998 0 0.56999999
0.35999998 0 0.57999998
0.35999998 0 0.58999997
0.35999998 0 0.59999996
0.35999998 0 0.60999995
0.35999998 0 0.62
0.35999998 0 0.63
0.35999998 0 0.63999999
0.35999998 0 0.64999998
0.35999998 0 0.65999997
0.35999998 0 0.66999996
0.35999998 0 0.67999995
0.35999998 0 0.69
0.35999998 0 0.69999999
0.35999998 0 0.70999998
0.35999998 0 0.71999997
0.35999998 0 0.72999996
0.35999998 0 0.73999995
0.35999998 0 0.75
0.35999998 0 0.75999999
0.35999998 0 0.76999998
0.35999998 0 0.77999997
0.35999998 0 0.78999996
0.35999998 0 0.79999995
0.35999998 0 0.80999994
0.35999998 0 0.81999999
0.35999998 0 0.82999998
0.35999998 0 0.83999997
0.35999998 0 0.84999996
0.35999998 0 0.85999995
0.35999998 0 0.86999995
0.35999998 0 0.88
0.35999998 0 0.88999999
0.35999998 0 0.89999998
0.35999998 0 0.90999997
0.35999998 0 0.91999996
0.35999998 0 0.92999995
0.35999998 0 0.94
0.35999998 0 0.94999999
0.35999998 0 0.95999998
0.35999998 0 0.96999997
0.35999998 0 0.97999996
0.37 0 0.0099999905
0.37 0 0.019999981
0.37 0 0.030000001
0.37 0 0.039999992
0.37 0 0.049999982
0.37 0 0.059999973
0.37 0 0.069999993
0.37 0 0.079999983
0.37 0 0.090000004
0.37 0 0.099999994
0.37 0 0.10999998
0.37 0 0.11999997
0.37 0 0.13
0.37 0 0.13999999
0.37 0 0.15000001
0.37 0 0.16
0.37 0 0.16999999
0.37 0 0.17999998
0.37 0 0.18999997
0.37 0 0.19999999
0.37 0 0.20999998
0.37 0 0.22
0.37 0 0.22999999
0.37 0 0.23999998
0.37 0 0.24999999
0.37 0 0.25999999
0.37 0 0.26999998
0.37 0 0.27999997
0.37 0 0.28999999
0.37 0 0.29999998
0.37 0 0.30999997
0.37 0 0.31999999
0.37 0 0.32999998
0.37 0 0.33999997
0.37 0 0.34999999
0.37 0 0.35999998
0.37 0 0.36999997
0.37 0 0.38
0.37 0 0.38999999
0.37 0 0.39999998
0.37 0 0.40999997
0.37 0 0.41999999
0.37 0 0.42999998
0.37 0 0.43999997
0.37 0 0.44999999
0.37 0 0.45999998
0.37 0 0.46999997
0.37 0 0.47999999
0.37 0 0.48999998
0.37 0 0.49999997
0.37 0 0.50999999
0.37 0 0.51999998
0.37 0 0.52999997
0.37 0 0.53999996
0.37 0 0.54999995
0.37 0 0.56
0.37 0 0.56999999
0.37 0 0.57999998
0.37 0 0.58999997
0.37 0 0.59999996
0.37 0 0.60999995
0.37 0 0.62
0.37 0 0.63
0.37 0 0.63999999
0.37 0 0.64999998
0.37 0 0.65999997
0.37 0 0.66999996
0.37 0 0.67999995
0.37 0 0.69
0.37 0 0.69999999
0.37 0 0.70999998
0.37 0 0.71999997
0.37 0 0.72999996
0.37 0 0.73999995
0.37 0 0.75
0.37 0 0.75999999
0.37 0 0.76999998
0.37 0 0.77999997
0.37 0 0.78999996
0.37 0 0.79999995
0.37 0 0.80999994
0.37 0 0.81999999
0.37 0 0.82999998
0.37 0 0.83999997
0.37 0 0.84999996
0.37 0 0.85999995
0.37 0 0.86999995
0.37 0 0.88
0.37 0 0.88999999
0.37 0 0.89999998
0.37 0 0.90999997
0.37 0 0.91999996
0.37 0 0.92999995
0.37 0 0.94
0.37 0 0.94999999
0.37 0 0.95999998
0.37 0 0.96999997
0.37 0 0.97999996
0.38 0 0.0099999905
0.38 0 0.019999981
0.38 0 0.030000001
0.38 0 0.039999992
0.38 0 0.049999982
0.38 0 0.059999973
0.38 0 0.069999993
0.38 0 0.079999983
0.38 0 0.090000004
0.38 0 0.099999994
0.38 0 0.10999998
0.38 0 0.11999997
0.38 0 0.13
0.38 0 0.13999999
0.38 0 0.15000001
0.38 0 0.16
0.38 0 0.16999999
0.38 0 0.17999998
0.38 0 0.18999997
0.38 0 0.19999999
0.38 0 0.20999998
0.38 0 0.22
0.38 0 0.22999999
0.38 0 0.23999998
0.38 0 0.24999999
0.38 0 0.25999999
0.38 0 0.26999998
0.38 0 0.27999997
0.38 0 0.28999999
0.38 0 0.29999998
0.38 0 0.30999997
0.38 0 0.31999999
0.38 0 0.32999998
0.38 0 0.33999997
0.38 0 0.34999999
0.38 0 0.35999998
0.38 0 0.36999997
0.38 0 0.38
0.38 0 0.38999999
0.38 0 0.39999998
0.38 0 0.40999997
0.38 0 0.41999999
0.38 0 0.42999998
0.38 0 0.43999997
0.38 0 0.44999999
0.38 0 0.45999998
0.38 0 0.46999997
0.38 0 0.47999999
0.38 0 0.48999998
0.38 0 0.49999997
0.38 0 0.50999999
0.38 0 0.51999998
0.38 0 0.52999997
0.38 0 0.53999996
0.38 0 0.54999995
0.38 0 0.56
0.38 0 0.56999999
0.38 0 0.57999998
0.38 0 0.58999997
0.38 0 0.59999996
0.38 0 0.60999995
0.38 0 0.62
0.38 0 0.63
0.38 0 0.63999999
0.38 0 0.64999998
0.38 0 0.65999997
0.38 0 0.66999996
0.38 0 0.67999995
0.38 0 0.69
0.38 0 0.69999999
0.38 0 0.70999998
0.38 0 0.71999997
0.38 0 0.72999996
0.38 0 0.73999995
0.38 0 0.75
0.38 0 0.75999999
0.38 0 0.76999998
0.38 0 0.77999997
0.38 0 0.78999996
0.38 0 0.79999995
0.38 0 0.80999994
0.38 0 0.81999999
0.38 0 0.82999998
0.38 0 0.83999997
0.38 0 0.84999996
0.38 0 0.85999995
0.38 0 0.86999995
0.38 0 0.88
0.38 0 0.88999999
0.38 0 0.89999998
0.38 0 0.90999997
0.38 0 0.91999996
0.38 0 0.92999995
0.38 0 0.94
0.38 0 0.94999999
0.38 0 0.95999998
0.38 0 0.96999997
0.38 0 0.97999996
0.38999999 0 0.0099999905
0.38999999 0 0.019999981
0.38999999 0 0.030000001
0.38999999 0 0.039999992
0.38999999 0 0.049999982
0.38999999 0 0.059999973
0.38999999 0 0.069999993
0.38999999 0 0.079999983
0.38999999 0 0.090000004
0.38999999 0 0.099999994
0.38999999 0 0.10999998
0.38999999 0 0.11999997
0.38999999 0 0.13
0.38999999 0 0.13999999
0.38999999 0 0.15000001
0.38999999 0 0.16
0.38999999 0 0.16999999
0.38999999 0 0.17999998
0.38999999 0 0.18999997
0.38999999 0 0.19999999
0.38999999 0 0.20999998
0.38999999 0 0.22
0.38999999 0 0.22999999
0.38999999 0 0.23999998
0.38999999 0 0.24999999
0.38999999 0 0.25999999
0.38999999 0 0.26999998
0.38999999 0 0.27999997
0.38999999 0 0.28999999
0.38999999 0 0.29999998
0.38999999 0 0.30999997
0.38999999 0 0.31999999
0.38999999 0 0.32999998
0.38999999 0 0.33999997
0.38999999 0 0.34999999
0.38999999 0 0.35999998
0.38999999 0 0.36999997
0.38999999 0 0.38
0.38999999 0 0.38999999
0.38999999 0 0.39999998
0.38999999 0 0.40999997
0.38999999 0 0.41999999
0.38999999 0 0.42999998
0.38999999 0 0.43999997
0.38999999 0 0.44999999
0.38999999 0 0.45999998
0.38999999 0 0.46999997
0.38999999 0 0.47999999
0.38999999 0 0.48999998
0.38999999 0 0.49999997
0.38999999 0 0.50999999
0.38999999 0 0.51999998
0.38999999 0 0.52999997
0.38999999 0 0.53999996
0.38999999 0 0.54999995
0.38999999 0 0.56
0.38999999 0 0.56999999
0.38999999 0 0.57999998
0.38999999 0 0.58999997
0.38999999 0 0.59999996
0.38999999 0 0.60999995
0.38999999 0 0.62
0.38999999 0 0.63
0.38999999 0 0.63999999
0.38999999 0 0.64999998
0.38999999 0 0.65999997
0.38999999 0 0.66999996
0.38999999 0 0.67999995
0.38999999 0 0.69
0.38999999 0 0.69999999
0.38999999 0 0.70999998
0.38999999 0 0.71999997
0.38999999 0 0.72999996
0.38999999 0 0.73999995
0.38999999 0 0.75
0.38999999 0 0.75999999
0.38999999 0 0.76999998
0.38999999 0 0.77999997
0.38999999 0 0.78999996
0.38999999 0 0.79999995
0.38999999 0 0.80999994
0.38999999 0 0.81999999
0.38999999 0 0.82999998
0.38999999 0 0.83999997
0.38999999 0 0.84999996
0.38999999 0 0.85999995
0.38999999 0 0.86999995
0.38999999 0 0.88
0.38999999 0 0.88999999
0.38999999 0 0.89999998
0.38999999 0 0.90999997
0.38999999 0 0.91999996
0.38999999 0 0.92999995
0.38999999 0 0.94
0.38999999 0 0.94999999
0.38999999 0 0.95999998
0.38999999 0 0.96999997
0.38999999 0 0.97999996
0.39999998 0 0.0099999905
0.39999998 0 0.019999981
0.39999998 0 0.030000001
0.39999998 0 0.039999992
0.39999998 0 0.049999982
0.39999998 0 0.059999973
0.39999998 0 0.069999993
0.39999998 0 0.079999983
0.39999998 0 0.090000004
0.39999998 0 0.099999994
0.39999998 0 0.10999998
0.39999998 0 0.11999997
0.39999998 0 0.13
0.39999998 0 0.13999999
0.39999998 0 0.15000001
0.39999998 0 0.16
0.39999998 0 0.16999999
0.39999998 0 0.17999998
0.39999998 0 0.18999997
0.39999998 0 0.19999999
0.39999998 0 0.20999998
0.39999998 0 0.22
0.39999998 0 0.22999999
0.39999998 0 0.23999998
0.39999998 0 0.24999999
0.39999998 0 0.25999999
0.39999998 0 0.26999998
0.39999998 0 0.27999997
0.39999998 0 0.28999999
0.39999998 0 0.29999998
0.39999998 0 0.30999997
0.39999998 0 0.31999999
0.39999998 0 0.32999998
0.39999998 0 0.33999997
0.39999998 0 0.34999999
0.39999998 0 0.35999998
0.39999998 0 0.36999997
0.39999998 0 0.38
0.39999998 0 0.38999999
0.39999998 0 0.39999998
0.39999998 0 0.40999997
0.39999998 0 0.41999999
0.39999998 0 0.42999998
0.39999998 0 0.43999997
0.39999998 0 0.44999999
0.39999998 0 0.45999998
0.39999998 0 0.46999997
0.39999998 0 0.47999999
0.39999998 0 0.48999998
0.39999998 0 0.49999997
0.39999998 0 0.50999999
0.39999998 0 0.51999998
0.39999998 0 0.52999997
0.39999998 0 0.53999996
0.39999998 0 0.54999995
0.39999998 0 0.56
0.39999998 0 0.56999999
0.39999998 0 0.57999998
0.39999998 0 0.58999997
0.39999998 0 0.59999996
0.39999998 0 0.60999995
0.39999998 0 0.62
0.39999998 0 0.63
0.39999998 0 0.63999999
0.39999998 0 0.64999998
0.39999998 0 0.65999997
0.39999998 0 0.66999996
0.39999998 0 0.67999995
0.39999998 0 0.69
0.39999998 0 0.69999999
0.39999998 0 0.70999998
0.39999998 0 0.71999997
0.39999998 0 0.72999996
0.39999998 0 0.73999995
0.39999998 0 0.75
0.39999998 0 0.75999999
0.39999998 0 0.76999998
0.39999998 0 0.77999997
0.39999998 0 0.78999996
0.39999998 0 0.79999995
0.39999998 0 0.80999994
0.39999998 0 0.81999999
0.39999998 0 0.82999998
0.39999998 0 0.83999997
0.39999998 0 0.84999996
0.39999998 0 0.85999995
0.39999998 0 0.86999995
0.39999998 0 0.88
0.39999998 0 0.88999999
0.39999998 0 0.89999998
0.39999998 0 0.90999997
0.39999998 0 0.91999996
0.39999998 0 0.92999995
0.39999998 0 0.94
0.39999998 0 0.94999999
0.39999998 0 0.95999998
0.39999998 0 0.96999997
0.39999998 0 0.97999996
0.41 0 0.0099999905
0.41 0 0.019999981
0.41 0 0.030000001
0.41 0 0.039999992
0.41 0 0.049999982
0.41 0 0.059999973
0.41 0 0.069999993
0.41 0 0.079999983
0.41 0 0.090000004
0.41 0 0.099999994
0.41 0 0.10999998
0.41 0 0.11999997
0.41 0 0.13
0.41 0 0.13999999
0.41 0 0.15000001
0.41 0 0.16
0.41 0 0.16999999
0.41 0 0.17999998
0.41 0 0.18999997
0.41 0 0.19999999
0.41 0 0.20999998
0.41 0 0.22
0.41 0 0.22999999
0.41 0 0.23999998
0.41 0 0.24999999
0.41 0 0.25999999
0.41 0 0.26999998
0.41 0 0.27999997
0.41 0 0.28999999
0.41 0 0.29999998
0.41 0 0.30999997
0.41 0 0.31999999
0.41 0 0.32999998
0.41 0 0.33999997
0.41 0 0.34999999
0.41 0 0.35999998
0.41 0 0.36999997
0.41 0 0.38
0.41 0 0.38999999
0.41 0 0.39999998
0.41 0 0.40999997
0.41 0 0.41999999
0.41 0 0.42999998
0.41 0 0.43999997
0.41 0 0.44999999
0.41 0 0.45999998
0.41 0 0.46999997
0.41 0 0.47999999
0.41 0 0.48999998
0.41 0 0.49999997
0.41 0 0.50999999
0.41 0 0.51999998
0.41 0 0.52999997
0.41 0 0.53999996
0.41 0 0.54999995
0.41 0 0.56
0.41 0 0.56999999
0.41 0 0.57999998
0.41 0 0.58999997
0.41 0 0.59999996
0.41 0 0.60999995
0.41 0 0.62
0.41 0 0.63
0.41 0 0.63999999
0.41 0 0.64999998
0.41 0 0.65999997
0.41 0 0.66999996
0.41 0 0.67999995
0.41 0 0.69
0.41 0 0.69999999
0.41 0 0.70999998
0.41 0 0.71999997
0.41 0 0.72999996
0.41 0 0.73999995
0.41 0 0.75
0.41 0 0.75999999
0.41 0 0.76999998
0.41 0 0.77999997
0.41 0 0.78999996
0.41 0 0.79999995
0.41 0 0.80999994
0.41 0 0.81999999
0.41 0 0.82999998
0.41 0 0.83999997
0.41 0 0.84999996
0.41 0 0.85999995
0.41 0 0.86999995
0.41 0 0.88
0.41 0 0.88999999
0.41 0 0.89999998
0.41 0 0.90999997
0.41 0 0.91999996
0.41 0 0.92999995
0.41 0 0.94
0.41 0 0.94999999
0.41 0 0.95999998
0.41 0 0.96999997
0.41 0 0.97999996
0.41999999 0 0.0099999905
0.41999999 0 0.019999981
0.41999999 0 0.030000001
0.41999999 0 0.039999992
0.41999999 0 0.049999982
0.41999999 0 0.059999973
0.41999999 0 0.069999993
0.41999999 0 0.079999983
0.41999999 0 0.090000004
0.41999999 0 0.099999994
0.41999999 0 0.10999998
0.41999999 0 0.11999997
0.41999999 0 0.13
0.41999999 0 0.13999999
0.41999999 0 0.15000001
0.41999999 0 0.16
0.41999999 0 0.16999999
0.41999999 0 0.17999998
0.41999999 0 0.18999997
0.41999999 0 0.19999999
0.41999999 0 0.20999998
0.41999999 0 0.22
0.41999999 0 0.22999999
0.41999999 0 0.23999998
0.41999999 0 0.24999999
0.41999999 0 0.25999999
0.41999999 0 0.26999998
0.41999999 0 0.27999997
0.41999999 0 0.28999999
0.41999999 0 0.29999998
0.41999999 0 0.30999997
0.41999999 0 0.31999999
0.41999999 0 0.32999998
0.41999999 0 0.33999997
0.41999999 0 0.34999999
0.41999999 0 0.35999998
0.41999999 0 0.36999997
0.41999999 0 0.38
0.41999999 0 0.38999999
0.41999999 0 0.39999998
0.41999999 0 0.40999997
0.41999999 0 0.41999999
0.41999999 0 0.42999998
0.41999999 0 0.43999997
0.41999999 0 0.44999999
0.41999999 0 0.45999998
0.41999999 0 0.46999997
0.41999999 0 0.47999999
0.41999999 0 0.48999998
0.41999999 0 0.49999997
0.41999999 0 0.50999999
0.41999999 0 0.51999998
0.41999999 0 0.52999997
0.41999999 0 0.53999996
0.41999999 0 0.54999995
0.41999999 0 0.56
0.41999999 0 0.56999999
0.41999999 0 0.57999998
0.41999999 0 0.58999997
0.41999999 0 0.59999996
0.41999999 0 0.60999995
0.41999999 0 0.62
0.41999999 0 0.63
0.41999999 0 0.63999999
0.41999999 0 0.64999998
0.41999999 0 0.65999997
0.41999999 0 0.66999996
0.41999999 0 0.67999995
0.41999999 0 0.69
0.41999999 0 0.69999999
0.41999999 0 0.70999998
0.41999999 0 0.71999997
0.41999999 0 0.72999996
0.41999999 0 0.73999995
0.41999999 0 0.75
0.41999999 0 0.75999999
0.41999999 0 0.76999998
0.41999999 0 0.77999997
0.41999999 0 0.78999996
0.41999999 0 0.79999995
0.41999999 0 0.80999994
0.41999999 0 0.81999999
0.41999999 0 0.82999998
0.41999999 0 0.83999997
0.41999999 0 0.84999996
0.41999999 0 0.85999995
0.41999999 0 0.86999995
0.41999999 0 0.88
0.41999999 0 0.88999999
0.41999999 0 0.89999998
0.41999999 0 0.90999997
0.41999999 0 0.91999996
0.41999999 0 0.92999995
0.41999999 0 0.94
0.41999999 0 0.94999999
0.41999999 0 0.95999998
0.41999999 0 0.96999997
0.41999999 0 0.97999996
0.42999998 0 0.0099999905
0.42999998 0 0.019999981
0.42999998 0 0.030000001
0.42999998 0 0.039999992
0.42999998 0 0.049999982
0.42999998 0 0.059999973
0.42999998 0 0.069999993
0.42999998 0 0.079999983
0.42999998 0 0.090000004
0.42999998 0 0.099999994
0.42999998 0 0.10999998
0.42999998 0 0.11999997
0.42999998 0 0.13
0.42999998 0 0.13999999
0.42999998 0 0.15000001
0.42999998 0 0.16
0.42999998 0 0.16999999
0.42999998 0 0.17999998
0.42999998 0 0.18999997
0.42999998 0 0.19999999
0.42999998 0 0.20999998
0.42999998 0 0.22
0.42999998 0 0.22999999
0.42999998 0 0.23999998
0.42999998 0 0.24999999
0.42999998 0 0.25999999
0.42999998 0 0.26999998
0.42999998 0 0.27999997
0.42999998 0 0.28999999
0.42999998 0 0.29999998
0.42999998 0 0.30999997
0.42999998 0 0.31999999
0.42999998 0 0.32999998
0.42999998 0 0.33999997
0.42999998 0 0.34999999
0.42999998 0 0.35999998
0.42999998 0 0.36999997
0.42999998 0 0.38
0.42999998 0 0.38999999
0.42999998 0 0.39999998
0.42999998 0 0.40999997
0.42999998 0 0.41999999
0.42999998 0 0.42999998
0.42999998 0 0.43999997
0.42999998 0 0.44999999
0.42999998 0 0.45999998
0.42999998 0 0.46999997
0.42999998 0 0.47999999
0.42999998 0 0.48999998
0.42999998 0 0.49999997
0.42999998 0 0.50999999
0.42999998 0 0.51999998
0.42999998 0 0.52999997
0.42999998 0 0.53999996
0.42999998 0 0.54999995
0.42999998 0 0.56
0.42999998 0 0.56999999
0.42999998 0 0.57999998
0.42999998 0 0.58999997
0.42999998 0 0.59999996
0.42999998 0 0.60999995
0.42999998 0 0.62
0.42999998 0 0.63
0.42999998 0 0.63999999
0.42999998 0 0.64999998
0.42999998 0 0.65999997
0.42999998 0 0.66999996
0.42999998 0 0.67999995
0.42999998 0 0.69
0.42999998 0 0.69999999
0.42999998 0 0.70999998
0.42999998 0 0.71999997
0.42999998 0 0.72999996
0.42999998 0 0.73999995
0.42999998 0 0.75
0.42999998 0 0.75999999
0.42999998 0 0.76999998
0.42999998 0 0.77999997
0.42999998 0 0.78999996
0.42999998 0 0.79999995
0.42999998 0 0.80999994
0.42999998 0 0.81999999
0.42999998 0 0.82999998
0.42999998 0 0.83999997
0.42999998 0 0.84999996
0.42999998 0 0.85999995
0.42999998 0 0.86999995
0.42999998 0 0.88
0.42999998 0 0.88999999
0.42999998 0 0.89999998
0.42999998 0 0.90999997
0.42999998 0 0.91999996
0.42999998 0 0.92999995
0.42999998 0 0.94
0.42999998 0 0.94999999
0.42999998 0 0.95999998
0.42999998 0 0.96999997
0.42999998 0 0.97999996
0.44 0 0.0099999905
0.44 0 0.019999981
0.44 0 0.030000001
0.44 0 0.039999992
0.44 0 0.049999982
0.44 0 0.059999973
0.44 0 0.069999993
0.44 0 0.079999983
0.44 0 0.090000004
0.44 0 0.099999994
0.44 0 0.10999998
0.44 0 0.11999997
0.44 0 0.13
0.44 0 0.13999999
0.44 0 0.15000001
0.44 0 0.16
0.44 0 0.16999999
0.44 0 0.17999998
0.44 0 0.18999997
0.44 0 0.19999999
0.44 0 0.20999998
0.44 0 0.22
0.44 0 0.22999999
0.44 0 0.23999998
0.44 0 0.24999999
0.44 0 0.25999999
0.44 0 0.26999998
0.44 0 0.27999997
0.44 0 0.28999999
0.44 0 0.29999998
0.44 0 0.30999997
0.44 0 0.31999999
0.44 0 0.32999998
0.44 0 0.33999997
0.44 0 0.34999999
0.44 0 0.35999998
0.44 0 0.36999997
0.44 0 0.38
0.44 0 0.38999999
0.44 0 0.39999998
0.44 0 0.40999997
0.44 0 0.41999999
0.44 0 0.42999998
0.44 0 0.43999997
0.44 0 0.44999999
0.44 0 0.45999998
0.44 0 0.46999997
0.44 0 0.47999999
0.44 0 0.48999998
0.44 0 0.49999997
0.44 0 0.50999999
0.44 0 0.51999998
0.44 0 0.52999997
0.44 0 0.53999996
0.44 0 0.54999995
0.44 0 0.56
0.44 0 0.56999999
0.44 0 0.57999998
0.44 0 0.58999997
0.44 0 0.59999996
0.44 0 0.60999995
0.44 0 0.62
0.44 0 0.63
0.44 0 0.63999999
0.44 0 0.64999998
0.44 0 0.65999997
0.44 0 0.66999996
0.44 0 0.67999995
0.44 0 0.69
0.44 0 0.69999999
0.44 0 0.70999998
0.44 0 0.71999997
0.44 0 0.72999996
0.44 0 0.73999995
0.44 0 0.75
0.44 0 0.75999999
0.44 0 0.76999998
0.44 0 0.77999997
0.44 0 0.78999996
0.44 0 0.79999995
0.44 0 0.80999994
0.44 0 0.81999999
0.44 0 0.82999998
0.44 0 0.83999997
0.44 0 0.84999996
0.44 0 0.85999995
0.44 0 0.86999995
0.44 0 0.88
0.44 0 0.88999999
0.44 0 0.89999998
0.44 0 0.90999997
0.44 0 0.91999996
0.44 0 0.92999995
0.44 0 0.94
0.44 0 0.94999999
0.44 0 0.95999998
0.44 0 0.96999997
0.44 0 0.97999996
0.44999999 0 0.0099999905
0.44999999 0 0.019999981
0.44999999 0 0.030000001
0.44999999 0 0.039999992
0.44999999 0 0.049999982
0.44999999 0 0.059999973
0.44999999 0 0.069999993
0.44999999 0 0.079999983
0.44999999 0 0.090000004
0.44999999 0 0.099999994
0.44999999 0 0.10999998
0.44999999 0 0.11999997
0.44999999 0 0.13
0.44999999 0 0.13999999
0.44999999 0 0.15000001
0.44999999 0 0.16
0.44999999 0 0.16999999
0.44999999 0 0.17999998
0.44999999 0 0.18999997
0.44999999 0 0.19999999
0.44999999 0 0.20999998
0.44999999 0 0.22
0.44999999 0 0.22999999
0.44999999 0 0.23999998
0.44999999 0 0.24999999
0.44999999 0 0.25999999
0.44999999 0 0.26999998
0.44999999 0 0.27999997
0.44999999 0 0.28999999
0.44999999 0 0.29999998
0.44999999 0 0.30999997
0.44999999 0 0.31999999
0.44999999 0 0.32999998
0.44999999 0 0.33999997
0.44999999 0 0.34999999
0.44999999 0 0.35999998
0.44999999 0 0.36999997
0.44999999 0 0.38
0.44999999 0 0.38999999
0.44999999 0 0.39999998
0.44999999 0 0.40999997
0.44999999 0 0.41999999
0.44999999 0 0.42999998
0.44999999 0 0.43999997
0.44999999 0 0.44999999
0.44999999 0 0.45999998
0.44999999 0 0.46999997
0.44999999 0 0.47999999
0.44999999 0 0.48999998
0.44999999 0 0.49999997
0.44999999 0 0.50999999
0.44999999 0 0.51999998
0.44999999 0 0.52999997
0.44999999 0 0.53999996
0.44999999 0 0.54999995
0.44999999 0 0.56
0.44999999 0 0.56999999
0.44999999 0 0.57999998
0.44999999 0 0.58999997
0.44999999 0 0.59999996
0.44999999 0 0.60999995
0.44999999 0 0.62
0.44999999 0 0.63
0.44999999 0 0.63999999
0.44999999 0 0.64999998
0.44999999 0 0.65999997
0.44999999 0 0.66999996
0.44999999 0 0.67999995
0.44999999 0 0.69
0.44999999 0 0.69999999
0.44999999 0 0.70999998
0.44999999 0 0.71999997
0.44999999 0 0.72999996
0.44999999 0 0.73999995
0.44999999 0 0.75
0.44999999 0 0.75999999
0.44999999 0 0.76999998
0.44999999 0 0.77999997
0.44999999 0 0.78999996
0.44999999 0 0.79999995
0.44999999 0 0.80999994
0.44999999 0 0.81999999
0.44999999 0 0.82999998
0.44999999 0 0.83999997
0.44999999 0 0.84999996
0.44999999 0 0.85999995
0.44999999 0 0.86999995
0.44999999 0 0.88
0.44999999 0 0.88999999
0.44999999 0 0.89999998
0.44999999 0 0.90999997
0.44999999 0 0.91999996
0.44999999 0 0.92999995
0.44999999 0 0.94
0.44999999 0 0.94999999
0.44999999 0 0.95999998
0.44999999 0 0.96999997
0.44999999 0 0.97999996
0.45999998 0 0.0099999905
0.45999998 0 0.019999981
0.45999998 0 0.030000001
0.45999998 0 0.039999992
0.45999998 0 0.049999982
0.45999998 0 0.059999973
0.45999998 0 0.069999993
0.45999998 0 0.079999983
0.45999998 0 0.090000004
0.45999998 0 0.099999994
0.45999998 0 0.10999998
0.45999998 0 0.11999997
0.45999998 0 0.13
0.45999998 0 0.13999999
0.45999998 0 0.15000001
0.45999998 0 0.16
0.45999998 0 0.16999999
0.45999998 0 0.17999998
0.45999998 0 0.18999997
0.45999998 0 0.19999999
0.45999998 0 0.20999998
0.45999998 0 0.22
0.45999998 0 0.22999999
0.45999998 0 0.23999998
0.45999998 0 0.24999999
0.45999998 0 0.25999999
0.45999998 0 0.26999998
0.45999998 0 0.27999997
0.45999998 0 0.28999999
0.45999998 0 0.29999998
0.45999998 0 0.30999997
0.45999998 0 0.31999999
0.45999998 0 0.32999998
0.45999998 0 0.33999997
0.45999998 0 0.34999999
0.45999998 0 0.35999998
0.45999998 0 0.36999997
0.45999998 0 0.38
0.45999998 0 0.38999999
0.45999998 0 0.39999998
0.45999998 0 0.40999997
0.45999998 0 0.41999999
0.45999998 0 0.42999998
0.45999998 0 0.43999997
0.45999998 0 0.44999999
0.45999998 0 0.45999998
0.45999998 0 0.46999997
0.45999998 0 0.47999999
0.45999998 0 0.48999998
0.45999998 0 0.49999997
0.45999998 0 0.50999999
0.45999998 0 0.51999998
0.45999998 0 0.52999997
0.45999998 0 0.53999996
0.45999998 0 0.54999995
0.45999998 0 0.56
0.45999998 0 0.56999999
0.45999998 0 0.57999998
0.45999998 0 0.58999997
0.45999998 0 0.59999996
0.45999998 0 0.60999995
0.45999998 0 0.62
0.45999998 0 0.63
0.45999998 0 0.63999999
0.45999998 0 0.64999998
0.45999998 0 0.65999997
0.45999998 0 0.66999996
0.45999998 0 0.67999995
0.45999998 0 0.69
0.45999998 0 0.69999999
0.45999998 0 0.70999998
0.45999998 0 0.71999997
0.45999998 0 0.72999996
0.45999998 0 0.73999995
0.45999998 0 0.75
0.45999998 0 0.75999999
0.45999998 0 0.76999998
0.45999998 0 0.77999997
0.45999998 0 0.78999996
0.45999998 0 0.79999995
0.45999998 0 0.80999994
0.45999998 0 0.81999999
0.45999998 0 0.82999998
0.45999998 0 0.83999997
0.45999998 0 0.84999996
0.45999998 0 0.85999995
0.45999998 0 0.86999995
0.45999998 0 0.88
0.45999998 0 0.88999999
0.45999998 0 0.89999998
0.45999998 0 0.90999997
0.45999998 0 0.91999996
0.45999998 0 0.92999995
0.45999998 0 0.94
0.45999998 0 0.94999999
0.45999998 0 0.95999998
0.45999998 0 0.96999997
0.45999998 0 0.97999996
0.47 0 0.0099999905
0.47 0 0.019999981
0.47 0 0.030000001
0.47 0 0.039999992
0.47 0 0.049999982
0.47 0 0.059999973
0.47 0 0.069999993
0.47 0 0.079999983
0.47 0 0.090000004
0.47 0 0.099999994
0.47 0 0.10999998
0.47 0 0.11999997
0.47 0 0.13
0.47 0 0.13999999
0.47 0 0.15000001
0.47 0 0.16
0.47 0 0.16999999
0.47 0 0.17999998
0.47 0 0.18999997
0.47 0 0.19999999
0.47 0 0.20999998
0.47 0 0.22
0.47 0 0.22999999
0.47 0 0.23999998
0.47 0 0.24999999
0.47 0 0.25999999
0.47 0 0.26999998
0.47 0 0.27999997
0.47 0 0.28999999
0.47 0 0.29999998
0.47 0 0.30999997
0.47 0 0.31999999
0.47 0 0.32999998
0.47 0 0.33999997
0.47 0 0.34999999
0.47 0 0.35999998
0.47 0 0.36999997
0.47 0 0.38
0.47 0 0.38999999
0.47 0 0.39999998
0.47 0 0.40999997
0.47 0 0.41999999
0.47 0 0.42999998
0.47 0 0.43999997
0.47 0 0.44999999
0.47 0 0.45999998
0.47 0 0.46999997
0.47 0 0.47999999
0.47 0 0.48999998
0.47 0 0.49999997
0.47 0 0.50999999
0.47 0 0.51999998
0.47 0 0.52999997
0.47 0 0.53999996
0.47 0 0.54999995
0.47 0 0.56
0.47 0 0.56999999
0.47 0 0.57999998
0.47 0 0.58999997
0.47 0 0.59999996
0.47 0 0.60999995
0.47 0 0.62
0.47 0 0.63
0.47 0 0.63999999
0.47 0 0.64999998
0.47 0 0.65999997
0.47 0 0.66999996
0.47 0 0.67999995
0.47 0 0.69
0.47 0 0.69999999
0.47 0 0.70999998
0.47 0 0.71999997
0.47 0 0.72999996
0.47 0 0.73999995
0.47 0 0.75
0.47 0 0.75999999
0.47 0 0.76999998
0.47 0 0.77999997
0.47 0 0.78999996
0.47 0 0.79999995
0.47 0 0.80999994
0.47 0 0.81999999
0.47 0 0.82999998
0.47 0 0.83999997
0.47 0 0.84999996
0.47 0 0.85999995
0.47 0 0.86999995
0.47 0 0.88
0.47 0 0.88999999
0.47 0 0.89999998
0.47 0 0.90999997
0.47 0 0.91999996
0.47 0 0.92999995
0.47 0 0.94
0.47 0 0.94999999
0.47 0 0.95999998
0.47 0 0.96999997
0.47 0 0.97999996
0.47999999 0 0.0099999905
0.47999999 0 0.019999981
0.47999999 0 0.030000001
0.47999999 0 0.039999992
0.47999999 0 0.049999982
0.47999999 0 0.059999973
0.47999999 0 0.069999993
0.47999999 0 0.079999983
0.47999999 0 0.090000004
0.47999999 0 0.099999994
0.47999999 0 0.10999998
0.47999999 0 0.11999997
0.47999999 0 0.13
0.47999999 0 0.13999999
0.47999999 0 0.15000001
0.47999999 0 0.16
0.47999999 0 0.16999999
0.47999999 0 0.17999998
0.47999999 0 0.18999997
0.47999999 0 0.19999999
0.47999999 0 0.20999998
0.47999999 0 0.22
0.47999999 0 0.22999999
0.47999999 0 0.23999998
0.47999999 0 0.24999999
0.47999999 0 0.25999999
0.47999999 0 0.26999998
0.47999999 0 0.27999997
0.47999999 0 0.28999999
0.47999999 0 0.29999998
0.47999999 0 0.30999997
0.47999999 0 0.31999999
0.47999999 0 0.32999998
0.47999999 0 0.33999997
0.47999999 0 0.34999999
0.47999999 0 0.35999998
0.47999999 0 0.36999997
0.47999999 0 0.38
0.47999999 0 0.38999999
0.47999999 0 0.39999998
0.47999999 0 0.40999997
0.47999999 0 0.41999999
0.47999999 0 0.42999998
0.47999999 0 0.43999997
0.47999999 0 0.44999999
0.47999999 0 0.45999998
0.47999999 0 0.46999997
0.47999999 0 0.47999999
0.47999999 0 0.48999998
0.47999999 0 0.49999997
0.47999999 0 0.50999999
0.47999999 0 0.51999998
0.47999999 0 0.52999997
0.47999999 0 0.53999996
0.47999999 0 0.54999995
0.47999999 0 0.56
0.47999999 0 0.56999999
0.47999999 0 0.57999998
0.47999999 0 0.58999997
0.47999999 0 0.59999996
0.47999999 0 0.60999995
0.47999999 0 0.62
0.47999999 0 0.63
0.47999999 0 0.63999999
0.47999999 0 0.64999998
0.47999999 0 0.65999997
0.47999999 0 0.66999996
0.47999999 0 0.67999995
0.47999999 0 0.69
0.47999999 0 0.69999999
0.47999999 0 0.70999998
0.47999999 0 0.71999997
0.47999999 0 0.72999996
0.47999999 0 0.73999995
0.47999999 0 0.75
0.47999999 0 0.75999999
0.47999999 0 0.76999998
0.47999999 0 0.77999997
0.47999999 0 0.78999996
0.47999999 0 0.79999995
0.47999999 0 0.80999994
0.47999999 0 0.81999999
0.47999999 0 0.82999998
0.47999999 0 0.83999997
0.47999999 0 0.84999996
0.47999999 0 0.85999995
0.47999999 0 0.86999995
0.47999999 0 0.88
0.47999999 0 0.88999999
0.47999999 0 0.89999998
0.47999999 0 0.90999997
0.47999999 0 0.91999996
0.47999999 0 0.92999995
0.47999999 0 0.94
0.47999999 0 0.94999999
0.47999999 0 0.95999998
0.47999999 0 0.96999997
0.47999999 0 0.97999996
0.48999998 0 0.0099999905
0.48999998 0 0.019999981
0.48999998 0 0.030000001
0.48999998 0 0.039999992
0.48999998 0 0.049999982
0.48999998 0 0.059999973
0.48999998 0 0.069999993
0.48999998 0 0.079999983
0.48999998 0 0.090000004
0.48999998 0 0.099999994
0.48999998 0 0.10999998
0.48999998 0 0.11999997
0.48999998 0 0.13
0.48999998 0 0.13999999
0.48999998 0 0.15000001
0.48999998 0 0.16
0.48999998 0 0.16999999
0.48999998 0 0.17999998
0.48999998 0 0.18999997
0.48999998 0 0.19999999
0.48999998 0 0.20999998
0.48999998 0 0.22
0.48999998 0 0.22999999
0.48999998 0 0.23999998
0.48999998 0 0.24999999
0.48999998 0 0.25999999
0.48999998 0 0.26999998
0.48999998 0 0.27999997
0.48999998 0 0.28999999
0.48999998 0 0.29999998
0.48999998 0 0.30999997
0.48999998 0 0.31999999
0.48999998 0 0.32999998
0.48999998 0 0.33999997
0.48999998 0 0.34999999
0.48999998 0 0.35999998
0.48999998 0 0.36999997
0.48999998 0 0.38
0.48999998 0 0.38999999
0.48999998 0 0.39999998
0.48999998 0 0.40999997
0.48999998 0 0.41999999
0.48999998 0 0.42999998
0.48999998 0 0.43999997
0.48999998 0 0.44999999
0.48999998 0 0.45999998
0.48999998 0 0.46999997
0.48999998 0 0.47999999
0.48999998 0 0.48999998
0.48999998 0 0.49999997
0.48999998 0 0.50999999
0.48999998 0 0.51999998
0.48999998 0 0.52999997
0.48999998 0 0.53999996
0.48999998 0 0.54999995
0.48999998 0 0.56
0.48999998 0 0.56999999
0.48999998 0 0.57999998
0.48999998 0 0.58999997
0.48999998 0 0.59999996
0.48999998 0 0.60999995
0.48999998 0 0.62
0.48999998 0 0.63
0.48999998 0 0.63999999
0.48999998 0 0.64999998
0.48999998 0 0.65999997
0.48999998 0 0.66999996
0.48999998 0 0.67999995
0.48999998 0 0.69
0.48999998 0 0.69999999
0.48999998 0 0.70999998
0.48999998 0 0.71999997
0.48999998 0 0.72999996
0.48999998 0 0.73999995
0.48999998 0 0.75
0.48999998 0 0.75999999
0.48999998 0 0.76999998
0.48999998 0 0.77999997
0.48999998 0 0.78999996
0.48999998 0 0.79999995
0.48999998 0 0.80999994
0.48999998 0 0.81999999
0.48999998 0 0.82999998
0.48999998 0 0.83999997
0.48999998 0 0.84999996
0.48999998 0 0.85999995
0.48999998 0 0.86999995
0.48999998 0 0.88
0.48999998 0 0.88999999
0.48999998 0 0.89999998
0.48999998 0 0.90999997
0.48999998 0 0.91999996
0.48999998 0 0.92999995
0.48999998 0 0.94
0.48999998 0 0.94999999
0.48999998 0 0.95999998
0.48999998 0 0.96999997
0.48999998 0 0.97999996
0.5 0 0.0099999905
0.5 0 0.019999981
0.5 0 0.030000001
0.5 0 0.039999992
0.5 0 0.049999982
0.5 0 0.059999973
0.5 0 0.069999993
0.5 0 0.079999983
0.5 0 0.090000004
0.5 0 0.099999994
0.5 0 0.10999998
0.5 0 0.11999997
0.5 0 0.13
0.5 0 0.13999999
0.5 0 0.15000001
0.5 0 0.16
0.5 0 0.16999999
0.5 0 0.17999998
0.5 0 0.18999997
0.5 0 0.19999999
0.5 0 0.20999998
0.5 0 0.22
0.5 0 0.22999999
0.5 0 0.23999998
0.5 0 0.24999999
0.5 0 0.25999999
0.5 0 0.26999998
0.5 0 0.27999997
0.5 0 0.28999999
0.5 0 0.29999998
0.5 0 0.30999997
0.5 0 0.31999999
0.5 0 0.32999998
0.5 0 0.33999997
0.5 0 0.34999999
0.5 0 0.35999998
0.5 0 0.36999997
0.5 0 0.38
0.5 0 0.38999999
0.5 0 0.39999998
0.5 0 0.40999997
0.5 0 0.41999999
0.5 0 0.42999998
0.5 0 0.43999997
0.5 0 0.44999999
0.5 0 0.45999998
0.5 0 0.46999997
0.5 0 0.47999999
0.5 0 0.48999998
0.5 0 0.49999997
0.5 0 0.50999999
0.5 0 0.51999998
0.5 0 0.52999997
0.5 0 0.53999996
0.5 0 0.54999995
0.5 0 0.56
0.5 0 0.56999999
0.5 0 0.57999998
0.5 0 0.58999997
0.5 0 0.59999996
0.5 0 0.60999995
0.5 0 0.62
0.5 0 0.63
0.5 0 0.63999999
0.5 0 0.64999998
0.5 0 0.65999997
0.5 0 0.66999996
0.5 0 0.67999995
0.5 0 0.69
0.5 0 0.69999999
0.5 0 0.70999998
0.5 0 0.71999997
0.5 0 0.72999996
0.5 0 0.73999995
0.5 0 0.75
0.5 0 0.75999999
0.5 0 0.76999998
0.5 0 0.77999997
0.5 0 0.78999996
0.5 0 0.79999995
0.5 0 0.80999994
0.5 0 0.81999999
0.5 0 0.82999998
0.5 0 0.83999997
0.5 0 0.84999996
0.5 0 0.85999995
0.5 0 0.86999995
0.5 0 0.88
0.5 0 0.88999999
0.5 0 0.89999998
0.5 0 0.90999997
0.5 0 0.91999996
0.5 0 0.92999995
0.5 0 0.94
0.5 0 0.94999999
0.5 0 0.95999998
0.5 0 0.96999997
0.5 0 0.97999996
0.50999999 0 0.0099999905
0.50999999 0 0.019999981
0.50999999 0 0.030000001
0.50999999 0 0.039999992
0.50999999 0 0.049999982
0.50999999 0 0.059999973
0.50999999 0 0.069999993
0.50999999 0 0.079999983
0.50999999 0 0.090000004
0.50999999 0 0.099999994
0.50999999 0 0.10999998
0.50999999 0 0.11999997
0.50999999 0 0.13
0.50999999 0 0.13999999
0.50999999 0 0.15000001
0.50999999 0 0.16
0.50999999 0 0.16999999
0.50999999 0 0.17999998
0.50999999 0 0.18999997
0.50999999 0 0.19999999
0.50999999 0 0.20999998
0.50999999 0 0.22
0.50999999 0 0.22999999
0.50999999 0 0.23999998
0.50999999 0 0.24999999
0.50999999 0 0.25999999
0.50999999 0 0.26999998
0.50999999 0 0.27999997
0.50999999 0 0.28999999
0.50999999 0 0.29999998
0.50999999 0 0.30999997
0.50999999 0 0.31999999
0.50999999 0 0.32999998
0.50999999 0 0.33999997
0.50999999 0 0.34999999
0.50999999 0 0.35999998
0.50999999 0 0.36999997
0.50999999 0 0.38
0.50999999 0 0.38999999
0.50999999 0 0.39999998
0.50999999 0 0.40999997
0.50999999 0 0.41999999
0.50999999 0 0.42999998
0.50999999 0 0.43999997
0.50999999 0 0.44999999
0.50999999 0 0.45999998
0.50999999 0 0.46999997
0.50999999 0 0.47999999
0.50999999 0 0.48999998
0.50999999 0 0.49999997
0.50999999 0 0.50999999
0.50999999 0 0.51999998
0.50999999 0 0.52999997
0.50999999 0 0.53999996
0.50999999 0 0.54999995
0.50999999 0 0.56
0.50999999 0 0.56999999
0.50999999 0 0.57999998
0.50999999 0 0.58999997
0.50999999 0 0.59999996
0.50999999 0 0.60999995
0.50999999 0 0.62
0.50999999 0 0.63
0.50999999 0 0.63999999
0.50999999 0 0.64999998
0.50999999 0 0.65999997
0.50999999 0 0.66999996
0.50999999 0 0.67999995
0.50999999 0 0.69
0.50999999 0 0.69999999
0.50999999 0 0.70999998
0.50999999 0 0.71999997
0.50999999 0 0.72999996
0.50999999 0 0.73999995
0.50999999 0 0.75
0.50999999 0 0.75999999
0.50999999 0 0.76999998
0.50999999 0 0.77999997
0.50999999 0 0.78999996
0.50999999 0 0.79999995
0.50999999 0 0.80999994
0.50999999 0 0.81999999
0.50999999 0 0.82999998
0.50999999 0 0.83999997
0.50999999 0 0.84999996
0.50999999 0 0.85999995
0.50999999 0 0.86999995
0.50999999 0 0.88
0.50999999 0 0.88999999
0.50999999 0 0.89999998
0.50999999 0 0.90999997
0.50999999 0 0.91999996
0.50999999 0 0.92999995
0.50999999 0 0.94
0.50999999 0 0.94999999
0.50999999 0 0.95999998
0.50999999 0 0.96999997
0.50999999 0 0.97999996
0.51999998 0 0.0099999905
0.51999998 0 0.019999981
0.51999998 0 0.030000001
0.51999998 0 0.039999992
0.51999998 0 0.049999982
0.51999998 0 0.059999973
0.51999998 0 0.069999993
0.51999998 0 0.079999983
0.51999998 0 0.090000004
0.51999998 0 0.099999994
0.51999998 0 0.10999998
0.51999998 0 0.11999997
0.51999998 0 0.13
0.51999998 0 0.13999999
0.51999998 0 0.15000001
0.51999998 0 0.16
0.51999998 0 0.16999999
0.51999998 0 0.17999998
0.51999998 0 0.18999997
0.51999998 0 0.19999999
0.51999998 0 0.20999998
0.51999998 0 0.22
0.51999998 0 0.22999999
0.51999998 0 0.23999998
0.51999998 0 0.24999999
0.51999998 0 0.25999999
0.51999998 0 0.26999998
0.51999998 0 0.27999997
0.51999998 0 0.28999999
0.51999998 0 0.29999998
0.51999998 0 0.30999997
0.51999998 0 0.31999999
0.51999998 0 0.32999998
0.51999998 0 0.33999997
0.51999998 0 0.34999999
0.51999998 0 0.35999998
0.51999998 0 0.36999997
0.51999998 0 0.38
0.51999998 0 0.38999999
0.51999998 0 0.39999998
0.51999998 0 0.40999997
0.51999998 0 0.41999999
0.51999998 0 0.42999998
0.51999998 0 0.43999997
0.51999998 0 0.44999999
0.51999998 0 0.45999998
0.51999998 0 0.46999997
0.51999998 0 0.47999999
0.51999998 0 0.48999998
0.51999998 0 0.49999997
0.51999998 0 0.50999999
0.51999998 0 0.51999998
0.51999998 0 0.52999997
0.51999998 0 0.53999996
0.51999998 0 0.54999995
0.51999998 0 0.56
0.51999998 0 0.56999999
0.51999998 0 0.57999998
0.51999998 0 0.58999997
0.51999998 0 0.59999996
0.51999998 0 0.60999995
0.51999998 0 0.62
0.51999998 0 0.63
0.51999998 0 0.63999999
0.51999998 0 0.64999998
0.51999998 0 0.65999997
0.51999998 0 0.66999996
0.51999998 0 0.67999995
0.51999998 0 0.69
0.51999998 0 0.69999999
0.51999998 0 0.70999998
0.51999998 0 0.71999997
0.51999998 0 0.72999996
0.51999998 0 0.73999995
0.51999998 0 0.75
0.51999998 0 0.75999999
0.51999998 0 0.76999998
0.51999998 0 0.77999997
0.51999998 0 0.78999996
0.51999998 0 0.79999995
0.51999998 0 0.80999994
0.51999998 0 0.81999999
0.51999998 0 0.82999998
0.51999998 0 0.83999997
0.51999998 0 0.84999996
0.51999998 0 0.85999995
0.51999998 0 0.86999995
0.51999998 0 0.88
0.51999998 0 0.88999999
0.51999998 0 0.89999998
0.51999998 0 0.90999997
0.51999998 0 0.91999996
0.51999998 0 0.92999995
0.51999998 0 0.94
0.51999998 0 0.94999999
0.51999998 0 0.95999998
0.51999998 0 0.96999997
0.51999998 0 0.97999996
0.52999997 0 0.0099999905
0.52999997 0 0.019999981
0.52999997 0 0.030000001
0.52999997 0 0.039999992
0.52999997 0 0.049999982
0.52999997 0 0.059999973
0.52999997 0 0.069999993
0.52999997 0 0.079999983
0.52999997 0 0.090000004
0.52999997 0 0.099999994
0.52999997 0 0.10999998
0.52999997 0 0.11999997
0.52999997 0 0.13
0.52999997 0 0.13999999
0.52999997 0 0.15000001
0.52999997 0 0.16
0.52999997 0 0.16999999
0.52999997 0 0.17999998
0.52999997 0 0.18999997
0.52999997 0 0.19999999
0.52999997 0 0.20999998
0.52999997 0 0.22
0.52999997 0 0.22999999
0.52999997 0 0.23999998
0.52999997 0 0.24999999
0.52999997 0 0.25999999
0.52999997 0 0.26999998
0.52999997 0 0.27999997
0.52999997 0 0.28999999
0.52999997 0 0.29999998
0.52999997 0 0.30999997
0.52999997 0 0.31999999
0.52999997 0 0.32999998
0.52999997 0 0.33999997
0.52999997 0 0.34999999
0.52999997 0 0.35999998
0.52999997 0 0.36999997
0.52999997 0 0.38
0.52999997 0 0.38999999
0.52999997 0 0.39999998
0.52999997 0 0.40999997
0.52999997 0 0.41999999
0.52999997 0 0.42999998
0.52999997 0 0.43999997
0.52999997 0 0.44999999
0.52999997 0 0.45999998
0.52999997 0 0.46999997
0.52999997 0 0.47999999
0.52999997 0 0.48999998
0.52999997 0 0.49999997
0.52999997 0 0.50999999
0.52999997 0 0.51999998
0.52999997 0 0.52999997
0.52999997 0 0.53999996
0.52999997 0 0.54999995
0.52999997 0 0.56
0.52999997 0 0.56999999
0.52999997 0 0.57999998
0.52999997 0 0.58999997
0.52999997 0 0.59999996
0.52999997 0 0.60999995
0.52999997 0 0.62
0.52999997 0 0.63
0.52999997 0 0.63999999
0.52999997 0 0.64999998
0.52999997 0 0.65999997
0.52999997 0 0.66999996
0.52999997 0 0.67999995
0.52999997 0 0.69
0.52999997 0 0.69999999
0.52999997 0 0.70999998
0.52999997 0 0.71999997
0.52999997 0 0.72999996
0.52999997 0 0.73999995
0.52999997 0 0.75
0.52999997 0 0.75999999
0.52999997 0 0.76999998
0.52999997 0 0.77999997
0.52999997 0 0.78999996
0.52999997 0 0.79999995
0.52999997 0 0.80999994
0.52999997 0 0.81999999
0.52999997 0 0.82999998
0.52999997 0 0.83999997
0.52999997 0 0.84999996
0.52999997 0 0.85999995
0.52999997 0 0.86999995
0.52999997 0 0.88
0.52999997 0 0.88999999
0.52999997 0 0.89999998
0.52999997 0 0.90999997
0.52999997 0 0.91999996
0.52999997 0 0.92999995
0.52999997 0 0.94
0.52999997 0 0.94999999
0.52999997 0 0.95999998
0.52999997 0 0.96999997
0.52999997 0 0.97999996
0.53999996 0 0.0099999905
0.53999996 0 0.019999981
0.53999996 0 0.030000001
0.53999996 0 0.039999992
0.53999996 0 0.049999982
0.53999996 0 0.059999973
0.53999996 0 0.069999993
0.53999996 0 0.079999983
0.53999996 0 0.090000004
0.53999996 0 0.099999994
0.53999996 0 0.10999998
0.53999996 0 0.11999997
0.53999996 0 0.13
0.53999996 0 0.13999999
0.53999996 0 0.15000001
0.53999996 0 0.16
0.53999996 0 0.16999999
0.53999996 0 0.17999998
0.53999996 0 0.18999997
0.53999996 0 0.19999999
0.53999996 0 0.20999998
0.53999996 0 0.22
0.53999996 0 0.22999999
0.53999996 0 0.23999998
0.53999996 0 0.24999999
0.53999996 0 0.25999999
0.53999996 0 0.26999998
0.53999996 0 0.27999997
0.53999996 0 0.28999999
0.53999996 0 0.29999998
0.53999996 0 0.30999997
0.53999996 0 0.31999999
0.53999996 0 0.32999998
0.53999996 0 0.33999997
0.53999996 0 0.34999999
0.53999996 0 0.35999998
0.53999996 0 0.36999997
0.53999996 0 0.38
0.53999996 0 0.38999999
0.53999996 0 0.39999998
0.53999996 0 0.40999997
0.53999996 0 0.41999999
0.53999996 0 0.42999998
0.53999996 0 0.43999997
0.53999996 0 0.44999999
0.53999996 0 0.45999998
0.53999996 0 0.46999997
0.53999996 0 0.47999999
0.53999996 0 0.48999998
0.53999996 0 0.49999997
0.53999996 0 0.50999999
0.53999996 0 0.51999998
0.53999996 0 0.52999997
0.53999996 0 0.53999996
0.53999996 0 0.54999995
0.53999996 0 0.56
0.53999996 0 0.56999999
0.53999996 0 0.57999998
0.53999996 0 0.58999997
0.53999996 0 0.59999996
0.53999996 0 0.60999995
0.53999996 0 0.62
0.53999996 0 0.63
0.53999996 0 0.63999999
0.53999996 0 0.64999998
0.53999996 0 0.65999997
0.53999996 0 0.66999996
0.53999996 0 0.67999995
0.53999996 0 0.69
0.53999996 0 0.69999999
0.53999996 0 0.70999998
0.53999996 0 0.71999997
0.53999996 0 0.72999996
0.53999996 0 0.73999995
0.53999996 0 0.75
0.53999996 0 0.75999999
0.53999996 0 0.76999998
0.53999996 0 0.77999997
0.53999996 0 0.78999996
0.53999996 0 0.79999995
0.53999996 0 0.80999994
0.53999996 0 0.81999999
0.53999996 0 0.82999998
0.53999996 0 0.83999997
0.53999996 0 0.84999996
0.53999996 0 0.85999995
0.53999996 0 0.86999995
0.53999996 0 0.88
0.53999996 0 0.88999999
0.53999996 0 0.89999998
0.53999996 0 0.90999997
0.53999996 0 0.91999996
0.53999996 0 0.92999995
0.53999996 0 0.94
0.53999996 0 0.94999999
0.53999996 0 0.95999998
0.53999996 0 0.96999997
0.53999996 0 0.97999996
0.55000001 0 0.0099999905
0.55000001 0 0.019999981
0.55000001 0 0.030000001
0.55000001 0 0.039999992
0.55000001 0 0.049999982
0.55000001 0 0.059999973
0.55000001 0 0.069999993
0.55000001 0 0.079999983
0.55000001 0 0.090000004
0.55000001 0 0.099999994
0.55000001 0 0.10999998
0.55000001 0 0.11999997
0.55000001 0 0.13
0.55000001 0 0.13999999
0.55000001 0 0.15000001
0.55000001 0 0.16
0.55000001 0 0.16999999
0.55000001 0 0.17999998
0.55000001 0 0.18999997
0.55000001 0 0.19999999
0.55000001 0 0.20999998
0.55000001 0 0.22
0.55000001 0 0.22999999
0.55000001 0 0.23999998
0.55000001 0 0.24999999
0.55000001 0 0.25999999
0.55000001 0 0.26999998
0.55000001 0 0.27999997
0.55000001 0 0.28999999
0.55000001 0 0.29999998
0.55000001 0 0.30999997
0.55000001 0 0.31999999
0.55000001 0 0.32999998
0.55000001 0 0.33999997
0.55000001 0 0.34999999
0.55000001 0 0.35999998
0.55000001 0 0.36999997
0.55000001 0 0.38
