# .PCD v0.7 - Point Cloud Data file format
VERSION 0.7
FIELDS x y z
SIZE 4 4 4
TYPE F F F
COUNT 1 1 1
WIDTH 1416
HEIGHT 1
VIEWPOINT 0 0 0 1 0 0 0
POINTS 1416
DATA ascii
0.089426294 0.18185815 0.099865541
0.1787349 0.11584236 0.10375704
0.072534785 0.15828015 0.17144214
0.20828529 0.10375565 0.13470651
0.11103079 0.082315654 0.14691074
0.12504798 0.14792116 0.12103233
0.20933428 0.10320766 0.14111103
0.20643279 0.10384326 0.12904909
0.20320679 0.10359756 0.12351344
0.1996488 0.10320275 0.11912104
0.19763759 0.10358395 0.11641034
0.19462618 0.10330956 0.11258614
0.19122329 0.10272665 0.10948144
0.098016784 0.095728159 0.16682664
0.15934676 0.12553275 0.10507643
0.12434189 0.12703115 0.11023864
0.092159197 0.17681615 0.093272835
0.13791539 0.20613416 0.11316913
0.16609307 0.12062146 0.10016824
0.071712494 0.16960816 0.15466924
0.077593684 0.12903416 0.13239586
0.1656945 0.15162615 0.12335698
0.097756594 0.19425516 0.099010333
0.20867749 0.10964346 0.14667633
0.20889559 0.10965676 0.14068384
0.20804858 0.10957935 0.13470285
0.1952965 0.10915016 0.11294504
0.09192729 0.16893016 0.12299331
0.12303309 0.072158158 0.11096963
0.08905369 0.17270616 0.11889994
0.096516997 0.20481916 0.079102933
0.092901886 0.20614615 0.080276236
0.090734795 0.20476715 0.084544338
0.14952078 0.12434386 0.18298554
0.086649597 0.20457016 0.084859043
0.075175092 0.17637016 0.14137949
0.077952087 0.17645516 0.13852842
0.077318192 0.12496036 0.13145053
0.092540488 0.19986415 0.092691541
0.095797196 0.19827916 0.091586038
0.071125984 0.14156315 0.14283964
0.19382 0.14326416 0.13058418
0.072312489 0.17099315 0.14626023
0.21607769 0.099336453 0.14006247
0.197514 0.14055516 0.13490441
0.19480719 0.14404716 0.13574146
0.10684709 0.18704915 0.13426787
0.19111519 0.14696915 0.13466567
0.093360797 0.17844516 0.087679237
0.21361679 0.10025875 0.14321783
0.21123108 0.099554956 0.14057206
0.18784958 0.14943615 0.13455372
0.094285697 0.19707616 0.10005164
0.091674492 0.19819316 0.099416137
0.086139083 0.18267615 0.12325712
0.21522309 0.10038695 0.14689234
0.19822349 0.14037316 0.14109275
0.18353489 0.15254615 0.13528439
0.11503029 0.16126716 0.15144813
0.08809419 0.19814816 0.099353135
0.19490519 0.14453515 0.14136894
0.17895478 0.15450716 0.13333207
0.071235582 0.16972415 0.14872703
0.19177999 0.14739317 0.13887368
0.17629339 0.15605916 0.13537019
0.076538995 0.12737715 0.15772374
0.097397387 0.19286415 0.10501984
0.092853293 0.19580916 0.10513994
0.084432483 0.19439216 0.099508733
0.18425819 0.12144256 0.10934533
0.18876369 0.15000115 0.14074239
0.17190591 0.15700015 0.13448721
0.091709092 0.19743615 0.10247993
0.08668229 0.19485715 0.10474114
0.2152254 0.098584555 0.15312503
0.1834192 0.15348515 0.14122619
0.088099986 0.12672246 0.11935914
0.076269194 0.11600655 0.15771024
0.19819659 0.14035416 0.14708954
0.19477619 0.14461716 0.14663094
0.16565003 0.15763316 0.13492917
0.13706338 0.10931486 0.18395364
0.096076682 0.19233516 0.10984164
0.082284793 0.18001115 0.13689151
0.098140195 0.061920855 0.14719394
0.099908888 0.062167056 0.15212473
0.098409295 0.061857257 0.15846513
0.098460391 0.066668853 0.15877064
0.097460583 0.062139355 0.16444044
0.098382488 0.062145256 0.17079614
0.075801089 0.12132796 0.15809163
0.13632649 0.12732217 0.10825284
0.092263088 0.061747957 0.14089166
0.093064994 0.066592157 0.14119114
0.094896093 0.062647156 0.14536674
0.084859192 0.10889236 0.16746643
0.081770688 0.10971335 0.16450474
0.091470882 0.065893158 0.13476115
0.10109239 0.064880952 0.15393914
0.097324684 0.067624554 0.16434623
0.10140759 0.067027152 0.17588304
0.087813392 0.10961076 0.17012013
0.078538388 0.16068816 0.18066114
0.077791885 0.12144626 0.16105264
0.079708487 0.17163116 0.17241123
0.13615459 0.14453816 0.11872664
0.094734684 0.065241255 0.14439504
0.098776594 0.067033753 0.14711484
0.10384979 0.067699358 0.15221834
0.075740397 0.16250816 0.17606314
0.12387549 0.066767558 0.17456874
0.13737869 0.10426286 0.18216504
0.17135105 0.13879716 0.11277954
0.10020109 0.071159154 0.17086634
0.074209496 0.15217716 0.17817204
0.17778099 0.12798916 0.10996754
0.081649184 0.11455166 0.16546693
0.099042296 0.070841253 0.16424024
0.080326796 0.15276916 0.12740919
0.12524709 0.069792151 0.17495593
0.13137449 0.070205458 0.18212324
0.078522295 0.11442076 0.16058624
0.093692586 0.069640756 0.13498561
0.093670189 0.069632456 0.13939589
0.098501787 0.071836956 0.14095637
0.099701986 0.069668859 0.14530514
0.10462479 0.071322352 0.14636433
0.075226486 0.15763116 0.17785914
0.078931287 0.12685286 0.16134374
0.078983486 0.10920376 0.15909794
0.14178419 0.12039635 0.18321814
0.075804189 0.16957016 0.17035523
0.10380409 0.07368426 0.14190432
0.10978809 0.073366657 0.14780714
0.074537084 0.11512855 0.15292394
0.11329499 0.19282016 0.13273641
0.10409109 0.074316956 0.16571084
0.1065625 0.078666762 0.1403566
0.076179385 0.17499216 0.16413184
0.13185279 0.076248854 0.17497014
0.085792288 0.14191315 0.18212354
0.14179599 0.12287705 0.17942424
0.11170779 0.077882856 0.14708464
0.17112663 0.11588486 0.099951036
0.13864639 0.081357755 0.17370203
0.11166329 0.079341456 0.15232603
0.11008169 0.078746259 0.15902573
0.11230029 0.086037755 0.16469383
0.11482039 0.085988551 0.16831814
0.13878968 0.085574456 0.17413554
0.086771086 0.14614716 0.12503466
0.14438438 0.087375551 0.18262294
0.1328584 0.12417226 0.10843323
0.13850988 0.089796454 0.17429835
0.14030269 0.091589153 0.17798373
0.14341259 0.091067456 0.18239754
0.13669159 0.19984415 0.11285944
0.13616939 0.18849316 0.11757293
0.10684689 0.18263915 0.13079458
0.10279969 0.16338515 0.12555914
0.099164486 0.098584153 0.16995104
0.1426608 0.11390536 0.094117135
0.10698489 0.13266416 0.11338064
0.10963339 0.17083316 0.13099575
0.13703369 0.097382858 0.17589824
0.13914479 0.096296556 0.17902504
0.11012658 0.15416616 0.12678948
0.08391659 0.15877716 0.12654561
0.10468129 0.14700717 0.12173004
0.12307309 0.13736016 0.11337894
0.1416743 0.20003216 0.11051254
0.10794319 0.083248056 0.14271943
0.11914909 0.061494958 0.10725273
0.11771919 0.061611257 0.11125644
0.11834489 0.065959454 0.11025564
0.11641699 0.061422855 0.11669354
0.11608349 0.066564858 0.11785904
0.15365326 0.061301757 0.10736184
0.16581997 0.12722215 0.10921183
0.093621597 0.06614086 0.1301875
0.070673585 0.15796016 0.15823963
0.11928849 0.064167857 0.10669833
0.19079989 0.10874856 0.10991164
0.095000491 0.19636516 0.075991333
0.071164787 0.15659316 0.16324124
0.096393883 0.068035357 0.12757325
0.089576989 0.17885415 0.095116839
0.12368799 0.066408053 0.10440674
0.098965287 0.070701852 0.12935941
0.10215979 0.069475651 0.15670224
0.076942191 0.15768215 0.13129027
0.11065529 0.067276455 0.12126364
0.10585029 0.070369557 0.15444604
0.11946349 0.069853358 0.11268814
0.11882379 0.071051359 0.11758254
0.11695199 0.073405161 0.12143534
0.098108694 0.072608858 0.13513556
0.11010469 0.073403455 0.15271634
0.10544468 0.072868057 0.15889174
0.10080629 0.071283951 0.16068605
0.12955579 0.072237059 0.10527654
0.12493559 0.071273856 0.10679483
0.13061029 0.14134416 0.11577433
0.10489979 0.073986053 0.12873733
0.071207091 0.17491315 0.15251844
0.12269579 0.074072756 0.11690053
0.16725144 0.14878815 0.11952504
0.1778307 0.13962716 0.11545514
0.11012379 0.073248252 0.12425029
0.10277489 0.074430361 0.13467591
0.090056688 0.17404516 0.11014224
0.088610083 0.19560516 0.087973535
0.10520849 0.078461751 0.13519886
0.10901069 0.075223953 0.15849924
0.14798689 0.14137216 0.11477923
0.12918338 0.074961558 0.11075874
0.18216349 0.11935246 0.10757034
0.17964269 0.12212566 0.10817693
0.18280719 0.13107516 0.11318503
0.13073829 0.078584857 0.11675384
0.12585768 0.075744756 0.11889764
0.12357599 0.078810051 0.12105803
0.15378028 0.13849515 0.11173144
0.11113659 0.078434959 0.1244908
0.10699969 0.079859152 0.12931876
0.13336039 0.079558954 0.11060564
0.13125719 0.076554254 0.11265084
0.1949406 0.13100916 0.11915654
0.13659999 0.07949926 0.10553783
0.10439939 0.14365216 0.11900094
0.1478515 0.13851815 0.11285634
0.11056769 0.14510816 0.11825964
0.11095319 0.085198954 0.12303519
0.10650429 0.085165352 0.12889829
0.10390359 0.085531056 0.13477208
0.10414609 0.084760755 0.1405807
0.18172848 0.14305916 0.11883613
0.14151318 0.13858116 0.11291644
0.13878489 0.083034053 0.10194774
0.1354422 0.08546716 0.10452674
0.13312589 0.085199058 0.11024964
0.13060969 0.085857362 0.11724293
0.17009629 0.14870816 0.11934924
0.13750789 0.08644186 0.10114154
0.13198578 0.087049156 0.11258663
0.097691193 0.090136558 0.12907378
0.093054593 0.092670158 0.13002373
0.092709884 0.090420455 0.13574579
0.082758993 0.099400356 0.15115614
0.095018089 0.18784116 0.076010533
0.141159 0.090575054 0.096961632
0.13687 0.091744356 0.099796042
0.13372049 0.090562955 0.10450503
0.13227989 0.089855954 0.10957864
0.1307983 0.09210106 0.11181054
0.12942839 0.090552859 0.11600153
0.14214779 0.061030157 0.10560374
0.088365793 0.092747755 0.14033599
0.17880549 0.14766416 0.12162044
0.085681289 0.096973553 0.13517104
0.087880597 0.09384916 0.13651818
0.13207079 0.092671558 0.10655174
0.091559187 0.095626958 0.12810183
0.086439997 0.098550759 0.12904556
0.082482085 0.098312654 0.14191741
0.071361184 0.17506215 0.14815053
0.13532889 0.096924357 0.098472439
0.13267508 0.09612646 0.10303704
0.13107479 0.098040953 0.10535334
0.1296396 0.096895657 0.11073044
0.12733829 0.097508758 0.11429504
0.10400209 0.066023558 0.12300204
0.092932895 0.097304858 0.12391808
0.082219288 0.099565357 0.13672939
0.17786409 0.15302315 0.12934078
0.088130385 0.099802159 0.12443405
0.080311686 0.10319616 0.1347059
0.071419388 0.16061716 0.14622083
0.16641298 0.12380086 0.10391164
0.086563289 0.10354496 0.12340987
0.084227592 0.10180186 0.1267685
0.082024395 0.10410935 0.1290967
0.079240292 0.10344005 0.14127585
0.17254075 0.14093915 0.11414354
0.16480897 0.12507565 0.10588033
0.13419399 0.10267666 0.097192943
0.1296151 0.10304406 0.10493864
0.12804569 0.10270976 0.11050184
0.18581289 0.11619986 0.10798114
0.13148929 0.10405485 0.099963136
0.092659995 0.10328246 0.11785834
0.076588795 0.10838985 0.14108616
0.076383486 0.10843915 0.14699833
0.14189829 0.12323736 0.10494844
0.14159469 0.14131016 0.11487624
0.088086292 0.10977206 0.11807224
0.085407495 0.10813516 0.12194794
0.082689792 0.10907966 0.12478237
0.080069095 0.10900596 0.12875858
0.07823579 0.10868606 0.13450047
0.076657996 0.11017825 0.15233023
0.077886492 0.10859375 0.15398964
0.21725738 0.093088359 0.13277039
0.12954208 0.10975606 0.10495543
0.12689969 0.10982385 0.10923244
0.076508284 0.11116966 0.13499039
0.13399529 0.10964586 0.097051039
0.13154238 0.10915785 0.10044204
0.077299491 0.16878416 0.13717121
0.084185585 0.11548196 0.12124404
0.081997886 0.11568676 0.1237389
0.078305289 0.11479346 0.12850551
0.077131689 0.11512645 0.13090527
0.075086787 0.11504775 0.13569658
0.074168593 0.11461335 0.14097631
0.074123383 0.11464046 0.14696634
0.098317087 0.061776757 0.12425388
0.11140929 0.061146155 0.11910344
0.13601859 0.072774753 0.10473074
0.14806569 0.12507325 0.10557294
0.14135569 0.12768915 0.10804594
0.18363449 0.10951456 0.10527004
0.17029473 0.11977325 0.10108104
0.14825469 0.11484656 0.093975037
0.15410525 0.14142916 0.11469154
0.18918429 0.13685416 0.11938654
0.14811699 0.065437056 0.10520564
0.12969708 0.060623556 0.10470563
0.13591529 0.060966656 0.10481463
0.15421093 0.12550506 0.10495123
0.1516071 0.14774317 0.11999124
0.19944039 0.11951835 0.11901593
0.10553899 0.070494652 0.12482867
0.14336969 0.12484425 0.10721274
0.14232269 0.065465853 0.10369594
0.10393439 0.060632456 0.12328583
0.11091059 0.12757415 0.11067894
0.16972876 0.12476096 0.10739924
0.14781329 0.15298715 0.12948348
0.19346029 0.11936516 0.11315283
0.18380739 0.084731758 0.10539314
0.14577879 0.12396725 0.10413294
0.20870289 0.085105762 0.12691885
0.15325919 0.10914626 0.093898043
0.099114388 0.066131555 0.12482708
0.17134476 0.065556258 0.10869944
0.18799599 0.10387485 0.10716404
0.13973719 0.11643506 0.095805734
0.11032338 0.061038457 0.12205821
0.18387179 0.091312654 0.10514694
0.11111579 0.15855916 0.12919554
0.1477356 0.061472055 0.10657744
0.14658579 0.15420716 0.13369764
0.11577929 0.15543416 0.13036509
0.15308867 0.15407716 0.12821665
0.15524589 0.15548116 0.13069722
0.15965757 0.15582816 0.13025616
0.1655404 0.15594116 0.13005751
0.17173612 0.15559316 0.13035461
0.10654179 0.15850715 0.12629044
0.11694739 0.15408616 0.12715511
0.15965503 0.15459716 0.1274447
0.16574059 0.15459916 0.12758474
0.17285509 0.15373115 0.12734009
0.10737659 0.15375516 0.12599166
0.17069721 0.061765157 0.11131343
0.16542038 0.061138257 0.11153103
0.15974444 0.061160956 0.11038254
0.17616989 0.062241256 0.11230864
0.16711211 0.065225452 0.10792714
0.16411 0.065266557 0.10739004
0.15961072 0.065306857 0.10681814
0.10520019 0.12758017 0.11248364
0.11412859 0.18007916 0.12653196
0.098045185 0.060402256 0.12904465
0.098622888 0.12734516 0.11461113
0.092260987 0.12705815 0.11740103
0.13006489 0.18272516 0.1225059
0.19631189 0.064281553 0.13473886
0.19479679 0.066707656 0.13005337
0.17855269 0.071879357 0.10828353
0.17159715 0.069564059 0.10773884
0.16582748 0.072191253 0.10541674
0.15971904 0.071605161 0.10478254
0.15357903 0.071771555 0.10393764
0.14816739 0.07124576 0.10422763
0.1417802 0.07301046 0.10381293
0.19675449 0.071762562 0.1266036
0.1314379 0.18517615 0.11977474
0.20285338 0.071817257 0.12845887
0.17702779 0.074267551 0.10685344
0.17208137 0.073571756 0.10583624
0.086049393 0.09646146 0.15280294
0.17142709 0.078710757 0.10284324
0.1656962 0.077611856 0.10214904
0.16105683 0.075862758 0.10159034
0.15948851 0.079178758 0.10059723
0.15354908 0.077840857 0.10013664
0.14810069 0.078294352 0.10010023
0.14654669 0.075773455 0.10162844
0.14211819 0.077720255 0.10236123
0.2032277 0.078804657 0.12546021
0.17763339 0.07899636 0.10461883
0.20458649 0.076005958 0.12596107
0.18266448 0.079909958 0.10588284
0.1428524 0.080342561 0.10077804
0.12907518 0.079637855 0.12138043
0.11659129 0.079834953 0.12183834
0.14230248 0.18879415 0.11734673
0.20769489 0.080008954 0.12585583
0.17003928 0.081572354 0.10150094
0.16553816 0.081572354 0.10125794
0.15968004 0.084619157 0.098857038
0.15355581 0.084586754 0.097888239
0.14753249 0.08511816 0.097017035
0.1424318 0.085022256 0.098636642
0.17678688 0.084884152 0.10302174
0.17303258 0.085774451 0.10205753
0.17003071 0.085808955 0.10139304
0.1654394 0.085934252 0.099811941
0.1289838 0.084893361 0.12042233
0.12363139 0.085165858 0.12050144
0.11665509 0.084831558 0.12048733
0.15308809 0.091135956 0.096148342
0.11854549 0.086901657 0.11961704
0.17795348 0.091499455 0.10243773
0.17109543 0.091840558 0.10030904
0.16596107 0.091272056 0.098760843
0.15908992 0.091505259 0.09709774
0.1482316 0.091925159 0.094844438
0.12604019 0.08759816 0.11972564
0.11006209 0.090559356 0.12187503
0.12451589 0.091811053 0.11779743
0.11745299 0.091704756 0.11802284
0.10277629 0.089215755 0.12771189
0.08483839 0.14438215 0.12623696
0.14395779 0.093334258 0.094526842
0.10494089 0.09140756 0.12421377
0.10012469 0.092454456 0.12459343
0.18781129 0.098013654 0.10714434
0.18415949 0.097192056 0.10466324
0.1793772 0.097077757 0.10228443
0.17597699 0.097183459 0.10079734
0.17137775 0.097270057 0.099576935
0.16499892 0.097788557 0.097692437
0.15963788 0.097300157 0.096648239
0.1549657 0.096094057 0.09579964
0.15250368 0.098431356 0.094626933
0.14795709 0.097362056 0.093710437
0.14230409 0.097570755 0.093846738
0.13860579 0.096260957 0.095752642
0.10218499 0.094278857 0.12117884
0.12397319 0.097554654 0.11515903
0.11756779 0.097425558 0.11555433
0.11035899 0.096705355 0.11740634
0.10355099 0.097208254 0.11728443
0.097450987 0.095768355 0.12206492
0.13794109 0.098896854 0.095173039
0.098914087 0.098188855 0.11815123
0.18384789 0.10384595 0.10512754
0.17891529 0.10344595 0.10262634
0.17602719 0.10293876 0.10133324
0.17177944 0.10295716 0.098966539
0.16515334 0.10300486 0.096843243
0.16093928 0.10314795 0.095935941
0.15793762 0.10320516 0.095030539
0.15307257 0.10351276 0.094139636
0.14825439 0.10333095 0.093427241
0.14124949 0.10327656 0.093336739
0.13772549 0.10316756 0.094552934
0.12495719 0.10353556 0.11309233
0.12296299 0.10158145 0.11397924
0.11896019 0.10350966 0.11321254
0.11606479 0.10140365 0.11463794
0.11084019 0.10150035 0.11449634
0.10371589 0.10145596 0.11434474
0.098294392 0.10254706 0.11525184
0.090572983 0.10094476 0.12143284
0.10117919 0.062332354 0.17588574
0.11020539 0.10390636 0.11305113
0.10395429 0.10366365 0.11325854
0.1758045 0.10791446 0.10121304
0.17162545 0.10898436 0.099456936
0.1649942 0.10894886 0.097076833
0.16092412 0.10739966 0.095557638
0.15890566 0.10933845 0.094676733
0.14840369 0.10895756 0.092983633
0.14193168 0.10930536 0.093271241
0.13789359 0.10881595 0.094301641
0.089120597 0.10462175 0.11980244
0.1781275 0.11004796 0.10248403
0.12430309 0.10871106 0.11104514
0.11758409 0.10847176 0.11157074
0.11088849 0.10876635 0.11086994
0.10433359 0.10819156 0.11170724
0.098753497 0.10968716 0.11311124
0.096431583 0.10698415 0.11422154
0.093143091 0.10997846 0.11494654
0.15788434 0.11376016 0.095209643
0.13788189 0.11367156 0.095240839
0.17590709 0.11407936 0.10145743
0.12661879 0.11362676 0.10821374
0.15392406 0.060974758 0.11151204
0.14198969 0.061157357 0.11113194
0.14791098 0.061028756 0.11124314
0.13612579 0.061215457 0.11090584
0.16552934 0.062024456 0.11619113
0.17156217 0.061390158 0.11725604
0.12361769 0.060641956 0.11174303
0.13003689 0.061452556 0.11181734
0.16045713 0.062073056 0.11538134
0.14779289 0.062650457 0.11390914
0.15122169 0.062285356 0.11430024
0.15348674 0.064937457 0.11703154
0.15987755 0.065148354 0.11794114
0.16556168 0.064651556 0.11853324
0.17861339 0.061628956 0.1231827
0.1320186 0.063612156 0.11354494
0.13618089 0.063666254 0.11318704
0.1408684 0.063890956 0.11357444
0.14239979 0.065195657 0.11674704
0.14744289 0.06515196 0.11636194
0.17008606 0.063536361 0.11950444
0.17262611 0.062117055 0.12275849
0.16972846 0.064757854 0.12321459
0.12300669 0.061203457 0.11742674
0.12975079 0.065134555 0.11732674
0.13631628 0.065496951 0.11664034
0.16591084 0.065861553 0.12246616
0.1262638 0.062713757 0.11642034
0.15968724 0.066025257 0.12313978
0.17101914 0.061734755 0.12878513
0.1772064 0.061287656 0.12916143
0.12612729 0.063946754 0.11835134
0.1480791 0.065724656 0.12313008
0.153835 0.065858558 0.12310301
0.11759929 0.060591258 0.12351806
0.12238949 0.061999258 0.12338716
0.142079 0.065519154 0.12322411
0.16538128 0.065343156 0.12880726
0.17774649 0.061970856 0.13489513
0.18285039 0.061699755 0.135488
0.18982148 0.062270556 0.13567308
0.190781 0.063472256 0.1328315
0.12509589 0.064488351 0.12258056
0.12942769 0.065374061 0.12344782
0.13624839 0.065368861 0.12314281
0.15970987 0.065877356 0.12908037
0.16721657 0.062526956 0.13096839
0.17151329 0.061961956 0.13557301
0.19412088 0.062944658 0.13658381
0.15382047 0.065707557 0.12901065
0.16542035 0.061828256 0.13540229
0.12150349 0.061066255 0.1287283
0.14215459 0.065345056 0.12916708
0.14804068 0.06550996 0.12911734
0.16373777 0.064510852 0.13295695
0.18427719 0.062409755 0.14062414
0.18918189 0.061570555 0.14071128
0.1949416 0.062460355 0.14082852
0.11059679 0.060398556 0.12882267
0.11719469 0.060576357 0.12974656
0.12929209 0.065245055 0.12908156
0.1361903 0.065253451 0.1290397
0.16045402 0.065254554 0.13521445
0.10376389 0.060333457 0.12909172
0.15396205 0.065516755 0.13491701
0.16543706 0.061192557 0.14082953
0.1689219 0.062053256 0.13855402
0.082684487 0.13619816 0.16937023
0.12338468 0.060563456 0.1355457
0.1413914 0.065216452 0.1353534
0.14808288 0.06534566 0.13491395
0.15916695 0.06488356 0.14075226
0.19037059 0.061885357 0.14695793
0.19552249 0.062844656 0.14670844
0.20167878 0.065227062 0.14650723
0.11030639 0.060444057 0.13527347
0.11646789 0.060488757 0.13468249
0.13490409 0.065148756 0.134866
0.16175549 0.062656552 0.14235164
0.18493009 0.062745355 0.14803034
0.20750758 0.068038359 0.14710084
0.10459609 0.060423158 0.13473471
0.1274702 0.060643956 0.13691899
0.13140398 0.065104961 0.13368176
0.1538384 0.065389156 0.14076735
0.16559438 0.061208557 0.14671063
0.092369288 0.060977455 0.13487196
0.097877994 0.060411558 0.13502207
0.1239062 0.061682157 0.14136125
0.12946978 0.060712356 0.14144082
0.14235689 0.065145656 0.1403677
0.1474869 0.065235257 0.14136274
0.16231677 0.062065057 0.14542183
0.16933894 0.061151557 0.14797354
0.1895099 0.062566057 0.15241733
0.19364159 0.063134357 0.15099844
0.19611439 0.064537056 0.15301293
0.11112909 0.060809556 0.14017706
0.11720259 0.062199958 0.14005339
0.13637958 0.064950451 0.14072205
0.15951669 0.064628959 0.14651774
0.18380758 0.062074356 0.15270513
0.2019008 0.066516057 0.15259264
0.20688029 0.068794653 0.15248494
0.10467429 0.060481556 0.14118636
0.15347844 0.065267958 0.14703083
0.16583996 0.062161755 0.15242234
0.17147757 0.061537057 0.15286073
0.20955139 0.070341751 0.15309833
0.097899392 0.060659356 0.14085291
0.12888689 0.061425455 0.14703403
0.14778519 0.065168962 0.14672613
0.17733689 0.061481956 0.15426354
0.12613699 0.06271176 0.14501864
0.13648719 0.064588457 0.14687134
0.14218599 0.065043956 0.14668263
0.16040914 0.06516476 0.15256974
0.17742549 0.061689857 0.15839824
0.183727 0.062266756 0.15854654
0.18777809 0.063370854 0.15668944
0.19006088 0.065071359 0.15871744
0.19481888 0.067117557 0.15876673
0.10887349 0.060462255 0.14595944
0.16384363 0.064580157 0.15434614
0.17185722 0.062278055 0.15825044
0.20075768 0.068201058 0.15789473
0.10389909 0.060614258 0.14663304
0.12877059 0.061544456 0.15223214
0.14744799 0.06518206 0.15247513
0.15381405 0.065327853 0.15272534
0.16577521 0.065415561 0.15841983
0.13653819 0.064768255 0.15254694
0.1421596 0.065066457 0.15338054
0.10888369 0.060479958 0.15306284
0.15968655 0.065669157 0.15839484
0.17026457 0.064990357 0.16050544
0.17707659 0.061751857 0.16518804
0.18253039 0.062469155 0.16412604
0.18638998 0.064229757 0.16198194
0.10385489 0.060825158 0.15246974
0.15387562 0.065523855 0.15857524
0.17117274 0.065253556 0.16356453
0.17359829 0.062566161 0.16507104
0.12603739 0.062223356 0.15503673
0.12869409 0.061385058 0.15862714
0.13565779 0.064829558 0.15905763
0.14165539 0.06522046 0.15828674
0.1479708 0.065407962 0.15852803
0.091423884 0.10025395 0.16758864
0.12381379 0.061544657 0.15855853
0.16560254 0.066239655 0.16417274
0.17824139 0.062009256 0.17140244
0.18221839 0.062730253 0.16879953
0.10378858 0.061050557 0.15846333
0.11046849 0.060992856 0.15889344
0.11791589 0.060846556 0.15943934
0.13168979 0.063857362 0.16048473
0.15361494 0.065933757 0.16509484
0.15976962 0.066128157 0.16565473
0.17132202 0.061584555 0.17115834
0.14778809 0.06575036 0.16443914
0.16662672 0.061658956 0.17191114
0.09691979 0.088764653 0.13388036
0.098697394 0.087528855 0.13561818
0.11718608 0.061428655 0.16467954
0.12413259 0.061335955 0.16520874
0.12850009 0.062080257 0.16457324
0.13567218 0.065399058 0.16465163
0.14175919 0.065658852 0.16523203
0.11060309 0.061377358 0.16468224
0.13135359 0.064645961 0.16412604
0.16051225 0.061749656 0.17301294
0.17088455 0.062455755 0.17630903
0.1776495 0.063052252 0.17514543
0.098446086 0.086642757 0.14129794
0.10422929 0.061277956 0.16516064
0.14811659 0.066219553 0.17003644
0.15332702 0.06637086 0.16987574
0.10387279 0.084877357 0.14654903
0.12397049 0.061614756 0.17202744
0.12955379 0.061411157 0.17105743
0.14251108 0.066081956 0.17017433
0.15391263 0.061742455 0.17729963
0.15955839 0.062070657 0.17782974
0.092540592 0.089198053 0.14064437
0.11758339 0.061607156 0.17165044
0.13703969 0.065827258 0.16932964
0.14809099 0.061736457 0.17782454
0.099056289 0.086286858 0.14689374
0.10953539 0.061438255 0.17117764
0.10316529 0.061416157 0.17175624
0.12974699 0.061896857 0.17755674
0.13645889 0.061728157 0.17728785
0.14114709 0.061730355 0.17793944
0.099361792 0.087046355 0.15108603
0.11560249 0.062020656 0.17542253
0.15063019 0.062262557 0.18146004
0.14638948 0.062102757 0.18240844
0.11433259 0.17295316 0.13085325
0.13626899 0.18348116 0.12364518
0.097699493 0.17171016 0.11771384
0.096474484 0.17846616 0.09254384
0.09637019 0.17222816 0.11314674
0.12146219 0.17902716 0.1252646
0 0.039649121 0.18155111
0.1424533 0.16114035 0.052608781
0.014609523 0.20537828 0.16321602
0.29031113 0.11594325 0.12480095
0.2580936 0.010288164 0.012843952
0.16452129 0.20304209 0.0018481761
0.11908563 0.020059474 0.10030968
0.21330768 0.1781604 0.22355857
0.26281515 0.15937248 0.0220953
0.20310336 0.12578334 0.16847664
0.28274122 0.23061138 0.063059233
0.014739946 0.22270349 0.078864776
0.19649372 0.22885893 0.23811941
0.11347096 0.074622549 0.23608017
0.22445431 0.227934 0.15654173
0.02257365 0.19107716 0.21257097
0.084700689 0.13196406 0.18416756
0.14838001 0.071817294 0.066051573
0.11158448 0.050237767 0.11689617
0.27880764 0.27512565 0.014550552
0.28098083 0.15258804 0.12405024
0.099088505 0.29857248 0.11868845
0.082661472 0.027293503 0.22772199
0.022903875 0.15143262 0.092298016
0.086058572 0.27652133 0.12728323
0.14425343 0.28474608 0.01203239
0.23652223 0.23303574 0.1989018
0.038935781 0.0046245232 0.16541667
0.26967323 0.19044392 0.1768944
0.22530895 0.30245304 0.21349965
0.072427392 0.09257327 0.084338471
0.15941925 0.17880747 0.2032662
0.12798895 0.25462705 0.064708538
0.12901823 0.16251406 0.11242706
0.089205101 0.053816982 0.036933467
0.1775523 0.24278617 0.0079404712
0.16599652 0.1507583 0.22954723
0.23241562 0.16774637 0.21401991
0.19407439 0.25478721 0.038386539
0.066077724 0.21623212 0.031336829
0.028258972 0.082964391 0.00071921945
0.12867615 0.0079578906 0.17054997
0.29130644 0.072464183 0.043463148
0.098624654 0.26839828 0.15667151
0.046691313 0.20612967 0.092699893
0.12042421 0.15114009 0.035446897
0.18237644 0.25585791 0.14178649
0.29674548 0.16821942 0.035595521
0.30540997 0.12359331 0.034074157
0.17545387 0.076163039 0.11737604
0.14412443 0.29083693 0.030280471
0.062041722 0.09648779 0.15119576
0.039354093 0.19701774 0.14936124
0.24943028 0.074865654 0.11447286
0.1209177 0.061363492 0.0068163276
0.2800554 0.12896211 0.034122512
0.29428488 0.12406153 0.031519741
0.275078 0.027729757 0.038970657
0.02206976 0.11044353 0.0608017
0.041962244 0.23695655 0.10939718
0.108559 0.13677512 0.19436717
0.28937358 0.19713654 0.05171717
0.21107747 0.27503899 0.06009727
0.26737875 0.14251682 0.12156674
0.18647856 0.24737529 0.18160835
0.14356984 0.28789139 0.15202941
0.1364526 0.24953602 0.16554298
0.21810141 0.29872489 0.22931996
0.26440006 0.08742401 0.12912814
0.15977985 0.031139344 0.099478945
0.17912449 0.26524162 0.10572852
0.2266556 0.26303059 0.17194903
0.24869955 0.21375692 0.17821383
0.0059276372 0.26810771 0.12613952
0.1439046 0.019560359 0.17141561
0.15186225 0.20199129 0.16387744
0.061978839 0.27737415 0.20804793
0.27643543 0.16452594 0.033443488
0.1398745 0.29939619 0.051785313
0.13853148 0.095422767 0.12365799
0.27379084 0.13296758 0.11233442
0.25054127 0.11038873 0.050821088
0.31032103 0.046330854 0.15148869
0.19143465 0 0.00020968914
0.24019901 0.22005495 0.076688699
0.12974164 0.20647728 0.16352011
0.063751459 0.25308555 0.17033397
0.25739244 0.028448954 0.01963795
0.23729581 0.19045252 0.0513817
0.066324741 0.024364822 0.093422771
0.29573628 0.28673398 0.093670331
0.08361508 0.20940676 0.068244845
0.24129039 0.23717216 0.10150477
0.087634571 0.058552664 0.002717495
0.059577636 0.29754102 0.058638483
0.2546027 0.041138023 0.095662236
0.18666999 0.053378731 0.19903094
0.048988529 0.29896456 0.061789542
0.072552972 0.030595355 0.052717254
0.19713941 0.21056901 0.19096133
0.21624906 0.22780821 0.16086717
0.19673951 0.016909905 0.14373463
0.070505671 0.096344933 0.1681508
0.036473222 0.23072425 0.12641245
0.17204122 0.17786132 0.079208888
0.21834454 0.043133549 0.038847916
0.15073851 0.2602939 0.19540542
0.17294955 0.22358605 0.075926967
0.04203146 0.15986285 0.074661091
0.18266608 0.15669417 0.10352018
0.080393568 0.11192337 0.094430566
0.13879316 0.14391994 0.093184412
0.086745381 0.02351772 0.088838033
0.078865275 0.2032343 0.16248092
0.15962508 0.22044052 0.17318055
0.29343572 0.13931777 0.22589561
0.099873431 0.13923809 0.12425528
0.20541313 0.12149377 0.14551821
0.30640313 0.045358695 0.16100599
0.10678655 0.16384824 0.12561581
0.2575573 0.0043468177 0.065884076
0.19970539 0.16518855 0.2205338
0.082807079 0.29355952 0.059282154
0.26213446 0.20996836 0.10950394
0.25378746 0.0065067112 0.038622342
0.21957467 0.21414778 0.10491154
0.1808963 0.22743568 0.2382385
0.21607399 0.084455244 0.18113241
0.053165369 0.0011079013 0.11910037
0.024819583 0.049200341 0.21703865
0.24319318 0.2259123 0.10486041
0.0019672811 0.17689185 0.12457559
0.020760961 0.16454847 0.093640976
0.06703262 0.11662979 0.15061724
0.20469809 0.21460001 0.12942502
0.0870547 0.24688195 0.089358866
0.21309924 0.093738161 0.0022444725
0.032236777 0.15756516 0.18642268
0.068541892 0.016558096 0.016970247
0.049778298 0.21897358 0.071365304
0.015714623 0.14449772 0.10984279
0.16150485 0.1350157 0.036114506
0.088810652 0.25225657 0.16714236
0.17945352 0.20607463 0.079571359
0.017849267 0.29864541 0.13032168
0.00051236153 0.25907272 0.0070518702
0.1172639 0.14808507 0.13843811
0.22951654 0.20551983 0.12884967
0.011051029 0.036914587 0.23387094
0.058475621 0.10619821 0.14755714
0.18872036 0.037951946 0.13283712
0.29631674 0.10789577 0.20137286
0.30259821 0.078248642 0.06043414
0.13179536 0.24600863 0.2157443
0.075965516 0.23013274 0.1669547
0.14034157 0.079643339 0.15990193
0.036204286 0.063274741 0.027311847
0.16988675 0.0016606376 0.042280607
0.18615726 0.13060051 0.019822702
0.213507 0.11346272 0.20091753
0.038399071 0.29454648 0.0071191043
0.024955064 0.1494758 0.18487459
0.2901054 0.075566188 0.086415067
0.23888272 0.15120499 0.18002447
0.20868932 0.20622644 0.181831
0.011293277 0.06963639 0.053259477
0.17474054 0.19743203 0.1481542
0.11537401 0.067889035 0.056148581
0.20282154 0.050062247 0.17878769
0.049617961 0.014244668 0.15905859
0.038805187 0.28722212 0.11633466
0.19289298 0.27658421 0.0043101013
0.18435155 0.21840066 0.11931444
0.016674928 0.13354501 0.12474293
0.23976174 0.019609526 0.10638967
0.3035076 0.14145067 0.079062253
0.1385024 0.22488123 0.049336754
0.053227618 0.11261783 0.22579044
0.29967827 0.07702028 0.016898245
0.038464725 0.15919355 0.038462378
0.1607963 0.031669512 0.20220767
0.11447217 0.12817274 0.0786229
0.22162357 0.17446604 0.20948996
0.23550704 0.25313944 0.16814038
0.12083882 0.28300852 0.14550929
0.11245995 0.16318043 0.10934074
0.12476228 0.072624564 0.019961864
0.13093898 0.14285523 0.069621958
0.03260076 0.065340981 0.19270304
0.163819 0.20233688 0.20750974
0.075705886 0.21527967 0.063349947
0.11890109 0.02434808 0.11046772
0.072325543 0.2406505 0.11805566
0.0010004193 0.080400005 0.15970621
0.13206099 0.056389868 0.23149702
0.041629836 0.24080282 0.22730878
0.053158008 0.18331543 0.015328869
0.10792772 0.08837837 0.12245632
0.25650057 0.25245532 0.17454419
0.10231914 0.24268886 0.15179503
0.014080301 0.012361825 0.036836192
0.23824629 0.018511921 0.12477376
0.28858948 0.066591352 0.049149729
0.027638495 0.21168442 0.16974306
0.15362886 0.07908567 0.17097086
0.11751728 0.060574461 0.055888146
0.13544811 0.14198273 0.20691979
0.30352566 0.13441907 0.0082262307
0.16267993 0.0093999654 0.18096687
0.18374357 0.24898908 0.079187855
0.072080515 0.16227917 0.10346507
0.12534897 0.29877916 0.23232213
0.26417053 0.26250085 0.074869245
0.04608731 0.30189008 0.15365957
0.14538056 0.28200114 0.16597347
0.25326112 0.1637951 0.13762924
0.049449749 0.28603911 0.19734396
0.04826878 0.012257151 0.082559988
0.034169361 0.029051356 0.12464643
0.0069565326 0.16983563 0.20588389
0.16054809 0.20406415 0.17712274
0.21693781 0.0067234635 0.046127275
0.20840591 0.10454888 0.015926354
0.043701939 0.27873176 0.053256869
0.11806034 0.17726387 0.040199481
0.0081786215 0.2090911 0.18317021
0.22166976 0.023233421 0.14171457
0.28745678 0.28132987 0.10342366
0.15715063 0.25152194 0.2208674
0.1868649 0.2189956 0.12478179
0.15244426 0.048697196 0.23453408
0.17839262 0.082559541 0.12768687
0.21696821 0.2018006 0.023409039
0.17043385 0.18474959 0.16049349
0.15378241 0.17289354 0.14149322
0.1370685 0.045607902 0.12068225
0.22715756 0.0094053447 0.012400672
0.16214934 0.096909471 0.0084224045
0.076138243 0.032273799 0.092016026
0.17139459 0.18064088 0.14683272
0.29048464 0.23358858 0.12329494
0.15115967 0.19667679 0.16746873
0.1265779 0.14723659 0.11527804
0.2206618 0.16157377 0.066469677
0.18807641 0.084634498 0.16900016
0.16476648 0.28392068 0.056559741
0.12842797 0.18073405 0.18813391
0.28582594 0.20617354 0.19730638
0.16381089 0.069544896 0.034522116
0.27938688 0.075949781 0.15654075
0.0014932901 0.28321877 0.066158786
0.2667284 0.084278658 0.22884327
0.15741473 0.037048683 0.10006688
0.21818364 0.13198821 0.025885373
0.23796979 0.030058868 0.10602323
0.10702227 0.089770079 0.18203546
0.10513791 0.099972583 0.013359234
0.17802693 0.14676316 0.048649728
0.035553128 0.29484981 0.20774202
0.15276223 0.11106601 0.19339833
0.050377719 0.048140168 0.01386784
0.046354726 0.14155971 0.091448925
0.27447429 0.12824634 0.099051125
0.20228824 0.093180582 0.014449194
0.25295353 0.27162796 0.22092888
0.2799139 0.23298788 0.041036457
0.17779678 0.0093288049 0.19300319
0.16219629 0.26071662 0.066602118
0.27006054 0.1775201 0.093506537
0.2521705 0.1589914 0.22582555
0.13046047 0.17540067 0.17999887
0.27356717 0.10219099 0.045542166
0.23081088 0.21750674 0.21123858
0.022630535 0.21484035 0.21121408
0.11162003 0.027027108 0.038689673
0.1294536 0.029018134 0.16210991
0.1747435 0.24600828 0.21100551
0.23895913 0.19215834 0.21541026
0.27283072 0.14712188 0.027166463
0.11724344 0.11567603 0.16520587
0.03780961 0.02308125 0.03443031
0.14835174 0.2143784 0.057188451
0.12143094 0.29531395 0.15107502
0.21157643 0.27496892 0.087073967
0.26686728 0.24032509 0.10304577
0.022829913 0.15080385 0.11626075
0.13999481 0.15111475 0.17798387
0.28973669 0.090695903 0.035125561
0.034169063 0.024141125 0.23365964
0.12677659 0.072009861 0.23142123
0.25887278 0.059797909 0.031109594
0.060970232 0.10250422 0.13831946
0.13674387 0.17716056 0.10400783
0.11436051 0.11558437 0.14419501
0.13339087 0.044872262 0.16102959
0.30916682 0.21119252 0.096766576
0.26378155 0.24797051 0.19062792
0.11623861 0.0027290657 0.11527701
0.19848756 0.19557688 0.15495095
0.24817601 0.11408467 0.085937865
0.12097556 0.10104703 0.1666501
0.045002401 0.088092938 0.160227
0.26536149 0.09510982 0.034632236
0.18705492 0.0015119165 0.22125027
0.11863194 0.15622419 0.082762346
0.082036838 0.087933794 0.20030281
0.038633049 0.19198093 0.011699244
0.14226562 0.11391889 0.037450761
0.23476468 0.20147476 0.0027690083
0.24688579 0.16966324 0.069354773
0.12906967 0.096900091 0.12364137
0.2233656 0.25478852 0.055717006
0.14442773 0.11287204 0.01202257
0.022935323 0.061120953 0.13603769
0.25826707 0.12776761 0.20172054
0.091016218 0.054685429 0.085902765
0.29013014 0.17829442 0.088669471
0.1438226 0.18992519 0.22692615
0.1260339 0.015105531 0.10688459
0.18509126 0.22640646 0.20763679
0.040693045 0.031486176 0.15985501
0.25884289 0.17583142 0.15824167
0.30501467 0.0055475459 0.22140484
0.060464397 0.29284385 0.12567942
0.086590916 0.21777178 0.14187057
0.25999337 0.25256222 0.15855259
0.22687319 0.19452661 0.08398138
0.16612895 0.20092188 0.077710174
0.26996547 0.13376839 0.22056255
0.085929915 0.28800821 0.02816774
0.12920856 0.25307214 0.23127112
0.10340437 0.15914626 0.12877508
0.25409991 0.2813881 0.15927473
0.075543806 0.28488204 0.1433758
0.039143339 0.074602805 0.21305594
0.060930014 0.049163096 0.20086718
0.18710329 0.18853605 0.2015115
0.20861003 0.11838177 0.2093457
0.20727435 0.034825198 8.1658363e-06
0.20998195 0.19020464 0.10921454
0.17838816 0.0095909014 0.084429137
0.26558429 0.11210836 0.15892208
0.17903548 0.017975494 0.17887518
0.086807549 0.13384512 0.042387716
0.02851072 0.27150318 0.23845148
0.1845421 0.0098132193 0.16601166
0.1513245 0.17221445 0.21521807
0.13495319 0.20832434 0.048812233
0.14961883 0.082314804 0.22756717
0.075876676 0.28846508 0.11459778
0.039470702 0.29094017 0.20595109
0.06752459 0.0019418076 0.1880071
0.015649617 0.29052192 0.15410426
0.17809442 0.041331351 0.031004205
0.25612482 0.15177982 0.15759152
0.15686779 0.15922882 0.028446332
0.28048491 0.20236234 0.066695288
0.12010805 0.11836302 0.19968978
0.075473249 0.037198432 0.17499191
0.20128834 0.060747705 0.20391825
0.0070035458 0.031783856 0.04516501
0.11211327 0.23589835 0.17280488
0.20696878 0.1757358 0.084376276
0.04880935 0.088264138 0.040631182
0.06947729 0.2031033 0.097253174
0.27534574 0.1752492 0.082135789
0.13580349 0.2116687 0.20045531
0.24598558 0.25691533 0.067808636
0.08220093 0.051283553 0.12819259
0.022728272 0.30223435 0.18024535
0.037959076 0.049660146 0.10214082
0.24015255 0.064487591 0.10426036
0.010271296 0.28121591 0.025477938
0.082705662 0.14578292 0.19048329
0.079984114 0.064592957 0.06786748
0.11821967 0.062839016 0.22309992
0.23731405 0.18651351 0.13836116
0.11067417 0.27471375 0.047548927
0.035438858 0.23937508 0.16774909
0.0056663603 0.22630286 0.027516969
0.27797133 0.19803971 0.083107144
0.11877421 0.064936146 0.07959938
0.0055215806 0.2766881 0.18872681
0.12220257 0.22085689 0.19979891
0.2726393 0.039065175 0.082514703
0.2926023 0.10949045 0.084589615
0.025048897 0.172987 0.18654595
0.26220468 0.1491884 0.19637878
0.19962943 0.13165031 0.084650636
0.10844497 0.085070774 0.22083917
0.19447915 0.22527672 0.037851349
0.2411512 0.076111212 0.1470603
0.26543543 0.095082149 0.14619212
0.039108716 0.11296362 0.032025479
0.081331544 0.037981674 0.048730299
0.23310894 0.021303341 0.11026372
0.2991789 0.070879065 0.047457002
0.21242972 0.024445266 0.20524965
0.047383189 0.036209002 0.19441023
0.29326174 0.013603263 0.014477998
0.25770748 0.042568557 0.19249861
0.070655003 0.12070095 0.14396949
0.20350324 0.016088158 0.23699641
0.25229779 0.12505063 0.0076484531
0.033557259 0.29488587 0.20834503
0.20843342 0.25246453 0.057235993
0.22267717 0.17838186 0.053469129
0.070740052 0.00029630959 0.10759673
0.12726991 0.28233141 0.0053954571
0.15948921 0.11382347 0.20651688
0.24657252 0.18436518 0.079722419
0.19381219 0.19781086 0.15482886
0.080479607 0.0076926425 0.23715931
0.064524047 0.19431421 0.13463017
0.11707228 0.03636466 0.10790735
0.042771727 0.17719856 0.13037147
0.15020306 0.26827991 0.019603617
0.11261816 0.030344568 0.071891271
0.26141778 0.2762745 0.19892818
0.30137026 0.24607889 0.19170678
0.2608363 0.13569115 0.15427753
0.2155295 0.24682963 0.1124972
0.060139775 0.12140955 0.22361034
0.14511161 0.11441184 0.12436344
0.070738159 0.27211559 0.23687238
0.042547613 0.13864665 0.16557981
0.086659096 0.12374821 0.17778513
0.00970532 0.091849774 0.046286568
0.25257242 0.083049335 0.17245808
0.12691605 0.23753788 0.173547
0.17923087 0.19147196 0.19188063
8.3088875e-05 0.18991444 0.083237082
0.14655517 0.14885893 0.12725255
0.098938286 0.25959712 0.033156835
0.12397034 0.11697606 0.20337549
0.017432906 0.13816158 0.18393618
0.090845853 0.29108685 0.24027288
0.3103134 0.22437938 0.084042311
0.24741504 0.060076639 0.14433959
0.16859767 0.076031759 0.048441879
0.17878515 0.1553847 0.17965186
0.1888472 0.29947877 0.19184567
0.17231026 0.044231549 0.025710352
0.16268389 0.07439895 0.13734582
0.10385072 0.20533127 0.016665518
0.26234114 0.26514959 0.079787061
0.04515861 0.22512366 0.15903397
0.1251013 0.17696458 0.13345957
0.15346904 0.18588923 0.22221142
0.19068168 0.077452108 0.0095285624
0.19279003 0.10382748 0.0058051646
0.053232022 0.18474519 0.10183768
0.17655304 0.22097476 0.089854658
0.11356575 0.11375549 0.020807646
0.18111189 0.1264393 0.026622467
0.10102336 0.20728591 0.13550931
0.27079871 0.16086569 0.23415503
0.018708386 0.1437528 0.026460446
0.30816615 0.16621153 0.16787931
0.039517157 0.1436438 0.014258057
0.13824691 0.27778083 0.1056017
0.26664925 0.30176234 0.13198179
0.038600005 0.25608492 0.045712598
0.20634186 0.19853744 0.2338319
0.14213224 0.048069574 0.033441104
0.088000089 0.29443061 0.14367209
0.26469156 0.018861547 0.22240207
0.29487729 0.14112554 0.067811437
0.14295039 0.13027233 0.20810953
0.061691806 0.11632591 0.18241397
0.25289395 0.20352337 0.17337696
0.21224922 0.094894066 0.040480562
0.21370189 0.27867675 0.039827459
0.0011835694 0.053204872 0.042803824
0.061512239 0.20217133 0.16205208
0.16072641 0.097745992 0.1121988
0.099644884 0.028174907 0.20914237
0.13825116 0.044565663 0.15666853
0.29257494 0.26699317 0.15880239
0.063332587 0.051400341 0.0038608015
0.051374726 0.03284993 0.086783789
0.17428428 0.29166782 0.058984511
0.0074087083 0.0089159235 0.21292284
0.27529645 0.2763415 0.13152499
0.053599343 0.14729665 0.19568248
0.29090619 0.17636994 0.13188668
0.14652303 0.22792825 0.079844624
0.053562857 0.15514387 0.091405243
0.25722376 0.29263633 0.0011464953
0.093608513 0.13746122 0.21395156
0.26199692 0.075626969 0.17633848
0.26076192 0.12789136 0.17022786
0.12606119 0.1591821 0.12627718
0.028427675 0.12205546 0.1879244
0.082240433 0.093038701 0.044441566
0.23500408 0.18775788 0.15505858
0.10166036 0.046520993 0.04429429
0.14138144 0.16126543 0.039025761
0.28753957 0.1236814 0.0074920356
0.051956035 0.17091891 0.23677236
0.043561719 0.10082391 0.074271753
0.11005056 0.049135819 0.077402957
0.11789503 0.19402671 0.14471836
0.01170177 0.10128817 0.018791333
0.1689717 0.14853029 0.069166593
0.078491375 0.1328449 0.15824658
0.1011216 0.00032377988 0.23371243
0.031327501 0.096223421 0.22958441
0.10847978 0.049904451 0.23678631
0.036164224 0.012502484 0.23089159
0.24390417 0.066553459 0.024376966
0.079064228 0.13229692 0.058387771
0.087770499 0.16612476 0.2119931
0.26451799 0.2028358 0.13397799
0.23537889 0.27294195 0.20504388
0.23595792 0.07065928 0.23986204
0.081151344 0.11338099 0.071961381
0.23155513 0.30014479 0.18412398
0.13312277 0.1941143 0.11143799
0.031823948 0.054892719 0.20744197
0.15633933 0.28171664 0.21577355
0.090433136 0.19032212 0.2343621
0.16897798 0.25134423 0.013167903
0.058893718 0.29513627 0.18385866
0.27017963 0.009611927 0.12456571
0.11660748 0.29343244 0.046406873
0.0709913 0.18057396 0.21540555
0.17066438 0.025488816 0.18668787
0.23949641 0.214321 0.012477323
0.27443081 0.021511167 0.2389901
0.083833292 0.15114982 0.16514334
0.2324598 0.2858566 0.16571751
0.28319231 0.051666968 0.19590187
0.087843172 0.14573099 0.21885312
0.21840471 0.12072922 0.040469334
0.28031009 0.063426703 0.1317566
0.11578129 0.079501756 0.19382827
0.073247038 0.19933668 0.080635913
0.16217026 0.13695166 0.14581387
0.20719871 0.0064104721 0.19683246
0.11719094 0.16387431 0.23299256
0.2317917 0.24002476 0.18229443
0.14076926 0.1229826 0.058679692
0.21812409 0.064563751 0.15886247
0.12642618 0.08351101 0.082448363
0.093631312 0.20826581 0.22929034
0.24169914 0.27303508 0.005201906
0.30259442 0.016095787 0.0985009
0.050796047 0.24085805 0.0027805418
0.18697944 0.27883786 0.026411168
0.16927814 0.021935664 0.13371532
0.11907481 0.14559551 0.093929656
0.12693036 0.1691165 0.22611547
0.21711463 0.17836004 0.0026759058
0.087822944 0.11711837 0.17919378
0.1756997 0.16766308 0.064532727
0.036388196 0.04875806 0.085128978
0.25105688 0.080283388 0.046052128
0.12872459 0.19607925 0.12726334
0.022626102 0.14211817 0.091051713
0.030702405 0.14917608 0.031910464
0.067162953 0.13253312 0.084845707
0.30867144 0.26996022 0.084080085
0.13639674 0.24255104 0.23598838
0.093555331 0.17442425 0.13261108
0.044488929 0.15320028 0.12009609
0.22662258 0.024830148 0.052153103
0.053708337 0.1164631 0.090010464
0.082108431 0.049685933 0.20579423
0.076226696 0.27032852 0.1900931
0.2994749 0.075744987 0.068255894
0.1707685 0.21750018 0.1238096
0.15109871 0.10636476 0.20626839
0.12802923 0.005997844 0.22001475
0.29802084 0.1720001 0.23976396
0.1243991 0.17776182 0.19374496
0.12679146 0.012963422 0.13105261
0.040406048 0.17383723 0.23287725
0.2116189 0.062562205 0.13548012
0.25800595 0.088500813 0.073537275
0.3037574 0.2980516 0.14024791
0.10338581 0.15775084 0.019795835
0.25087976 0.20622352 0.14290513
0.063407063 0.060501158 0.039388239
0.08720959 0.059611686 0.19054925
0.27078497 0.23878762 0.021802321
0.049695566 0.074618563 0.18295297
0.16059831 0.11845377 0.20855463
0.10333176 0.18049979 0.18746294
0.30647343 0.28879562 0.19769594
0.24134403 0.20766926 0.20229715
0.19505247 0.23248748 0.095304608
0.18177721 0.12701024 0.19260226
0.14838839 0.20898393 0.19549112
0.17111179 0.08908239 0.14103621
0.14732036 0.27192542 0.10313421
0.080727942 0.14032775 7.8976154e-06
0.204391 0.027628869 0.13510627
0.21090668 0.20197442 0.17906636
0.20265183 0.29716337 0.067201316
0.24312404 0.0013887882 0.020857342
0.018384084 0.28044319 0.051575668
0.24268509 0.076627821 0.068859018
0.22926921 0.089404628 0.11369402
0.2826333 0.27932036 0.21427189
0.077850349 0.22764632 0.16432446
0.14539057 0.1433222 0.050156422
0.15728122 0.27166247 0.20064354
0.29776958 0.29447243 0.22067508
0.046184614 0.079422303 0.095264375
0.23960844 0.23316091 0.18638313
0.14115757 0.12659289 0.15289015
0.20098415 0.22449613 0.19930419
0.08452224 0.23606881 0.043345958
0.037268341 0.23833543 0.23831543
0.023992807 0.12848827 0.20209709
0.19677441 0.28590596 0.10340135
0.29381156 0.24162132 0.090624943
0.076650545 0.25074947 0.0099947304
0.071000487 0.028282836 0.20697792
0.013505809 0.28888571 0.19804037
0.26991129 0.15484425 0.18022929
0.31006718 0.12622492 0.050841168
0.12538818 0.032795891 0.086991593
0.03008721 0.06156813 0.093006343
0.25579953 0.27209723 0.23206432
0.25377625 0.12603766 0.19640855
0.2251696 0.13865973 0.099736497
0.18409064 0.18251558 0.16038616
0.30669123 0.22361648 0.0010081679
0.19426452 0.039237283 0.21530733
0.21053082 0.099237189 0.056903392
0.14021991 0.20594722 0.062188581
0.045342669 0.21294361 0.14386994
0.21461025 0.022139661 0.21135481
0.063037761 0.065447822 0.1760232
0.24401021 0.28996474 0.17190528
0.22998807 0.058934681 0.051764935
0.0063518137 0.25391525 0.18280573
0.067901827 0.12705472 0.065041088
0.21022603 0.25291157 0.012130484
0.19344221 0.19170004 0.10997989
0.034014657 0.21941894 0.0042074472
0.1282236 0.16277771 0.024568334
0.19889024 0.13177058 0.0066782385
0.075310744 0.099712722 0.15181406
0.11671051 0.16473547 0.18473372
0.024516501 0.23076968 0.011595264
0.057332046 0.14223455 0.20146385
0.10512012 0.11135516 0.20514435
0.24434878 0.084168091 0.19589359
0.21845089 0.27169916 0.2091276
0.12821701 0.054923192 0.13321707
0.16490346 0.10609213 0.17426744
0.30189553 0.071076222 0.033840738
0.073841043 0.24253015 0.1975762
0.12455212 0.26261419 0.14473267
0.012005217 0.22847152 0.11718325
0.30394906 0.10738937 0.17537101
0.051259585 0.26594192 0.074562296
0.2104536 0.045351811 0.069161646
0.28161871 0.0065324903 0.14217232
0.29338712 0.25093913 0.1365006
0.065640032 0.0090185478 0.13986632
0.19929162 0.046771131 0.016400509
0.095514193 0.1737183 0.088565782
0.065233551 0.010408938 0.18187431
0.020257026 0.08319442 0.18515252
0.11622556 0.091528393 0.085159838
0.30042425 0.18824527 0.167668
0.10764797 0.046581022 0.12398228
0.17562839 0.21069321 0.16554448
0.25085717 0.13875559 0.17687204
0.050251469 0.099089012 0.0029926747
0.13685882 0.24372122 0.22419785
0.17501616 0.17152408 0.138313
0.30680192 0.22039351 0.026710898
0.15865886 0.134409 0.1140748
0.16926913 0.1770113 0.035677612
0.2253741 0.15892664 0.082938522
0.18256471 0.0097991303 0.21839641
0.23529768 0.15363103 0.098305039
0.14386943 0.049034409 0.16657704
0.01076588 0.20958492 0.0412606
0.077872425 0.28657821 0.17862558
0.2547164 0.08724016 0.079923019
0.20361008 0.25266606 0.10195023
0.13709214 0.13045597 0.014185697
0.1190039 0.19490799 0.12446325
0.064876936 0.22323245 0.16551168
0.1594336 0.11095247 0.12068786
0.038425721 0.12565924 0.19539788
0.0090444088 0.16349861 0.027857758
0.22763067 0.19119725 0.13207309
0.15864523 0.21384285 0.12304096
0.22392249 0.29524329 0.16946359
0.2939702 0.11554889 0.15141103
0.057258464 0.14780992 0.073075637
0.21332821 0.21184914 0.2040965
0.15227127 0.2422123 0.043064751
0.13971269 0.07067775 0.0056387037
0.16389666 0.26379851 0.081435591
0.1424744 0.20409027 0.045082599
0.18534274 0.10796753 0.19724771
0.13141169 0.015527107 0.20303357
0.043073662 0.27960798 0.20568809
0.25472996 0.0065574124 0.23424388
0.085593276 0.22266333 0.023827635
0.25749755 0.2366603 0.0029691905
0.24766278 0.18311641 0.0041378886
